0.24805567 -0.32291192 -0.00000500
0.36211997 0.73782021 -0.00000500
0.09488183 0.80438429 -0.00000500
-0.35057819 0.52183998 -0.00000500
0.59596497 0.59494770 -0.00000500
0.63055736 -0.54809779 -0.00000500
-0.10622400 0.67928994 -0.00000500
0.42359054 0.72602803 -0.00000500
0.58188605 0.21220595 -0.00000500
0.06982958 0.81065363 -0.00000500
0.23200697 0.92392427 -0.00000500
0.66172075 -0.07897240 -0.00000500
-0.21816576 0.34855390 -0.00000500
0.34526706 0.42385697 -0.00000500
0.62188691 -0.07003039 -0.00000500
0.14982581 0.40041727 -0.00000500
-0.03252870 0.79181820 -0.00000500
-0.20089328 0.42461538 -0.00000500
0.23439410 0.15551263 -0.00000500
0.64721161 0.44150662 -0.00000500
0.34970257 0.31355613 -0.00000500
-0.37213826 0.90144002 -0.00000500
-0.54918718 0.84594202 -0.00000500
-0.67317307 0.97904968 -0.00000500
0.51894122 -0.48014659 -0.00000500
0.52770889 0.72016883 -0.00000500
0.40538183 0.14174640 -0.00000500
-0.38082790 0.93418258 -0.00000500
-0.26804417 0.45161331 -0.00000500
0.40072036 0.73639441 -0.00000500
-0.02444428 0.48363185 -0.00000500
0.46045208 0.34372425 -0.00000500
-0.12477624 0.73805535 -0.00000500
-0.35841727 0.94295162 -0.00000500
-0.19242007 0.84681123 -0.00000500
0.50277293 -0.51461822 -0.00000500
0.62124819 0.85616648 -0.00000500
0.15944201 0.85650790 -0.00000500
0.32286939 -0.28644496 -0.00000500
0.27987096 0.23826241 -0.00000500
0.53846473 0.18209547 -0.00000500
0.33753136 0.22944880 -0.00000500
0.29824904 0.69456786 -0.00000500
-0.02538788 0.11704487 -0.00000500
0.05427569 0.59995043 -0.00000500
-0.15063810 0.95333672 -0.00000500
-0.06795728 0.22047955 -0.00000500
-0.09078228 0.55000126 -0.00000500
0.64660782 -0.44482058 -0.00000500
0.03703529 0.38347828 -0.00000500
0.44992489 0.35184592 -0.00000500
0.19519544 -0.21243793 -0.00000500
0.61076200 -0.67294651 -0.00000500
-0.10124391 0.78931004 -0.00000500
0.11815292 -0.11407298 -0.00000500
0.15483981 0.70299745 -0.00000500
0.64763266 0.97107077 -0.00000500
0.40459305 -0.05829519 -0.00000500
0.41021237 -0.44197553 -0.00000500
0.07695442 0.43996048 -0.00000500
0.24709055 0.71677256 -0.00000500
-0.22007895 0.50308847 -0.00000500
0.31476572 0.09434015 -0.00000500
-0.35506523 0.56223816 -0.00000500
0.31233993 0.93143982 -0.00000500
-0.17878979 0.69320947 -0.00000500
-0.32243669 0.76285666 -0.00000500
0.60518056 -0.48946255 -0.00000500
-0.28431261 0.81974268 -0.00000500
0.27986214 0.60775959 -0.00000500
-0.03199667 0.65416038 -0.00000500
0.36451247 -0.33322424 -0.00000500
0.09491098 -0.04636103 -0.00000500
0.12127692 0.95822537 -0.00000500
0.45683590 0.35019588 -0.00000500
0.59460086 -0.08329564 -0.00000500
0.69391149 0.87797731 -0.00000500
0.23525336 0.43490767 -0.00000500
0.69964433 0.92248887 -0.00000500
0.08833355 0.04844600 -0.00000500
0.51911986 0.06577873 -0.00000500
-0.31802893 0.52994967 -0.00000500
0.02889323 0.51403487 -0.00000500
0.39698476 -0.38236576 -0.00000500
0.52633321 0.92906618 -0.00000500
0.47234023 0.73254871 -0.00000500
0.20841497 0.17191643 -0.00000500
0.17360365 0.90778613 -0.00000500
-0.18262243 0.77956474 -0.00000500
-0.46748292 0.66931283 -0.00000500
0.61309457 0.11374086 -0.00000500
0.63353479 0.70082164 -0.00000500
0.24916670 0.61955440 -0.00000500
0.60439718 0.35278064 -0.00000500
0.35939962 -0.43979865 -0.00000500
0.00787365 0.84296471 -0.00000500
0.21108875 0.25300074 -0.00000500
0.46999508 0.94126529 -0.00000500
0.22836822 0.92247796 -0.00000500
0.58428389 -0.07712537 -0.00000500
0.14330053 0.01092494 -0.00000500
0.29698625 0.03162348 -0.00000500
0.65192324 -0.70425743 -0.00000500
0.09478772 0.13241565 -0.00000500
0.08471471 0.06118000 -0.00000500
0.45579195 0.14548361 -0.00000500
-0.26400936 0.67585659 -0.00000500
0.02564704 0.42728657 -0.00000500
0.18554419 0.00526172 -0.00000500
0.26226473 -0.22018129 -0.00000500
0.64458567 0.52358973 -0.00000500
-0.23724174 0.38387746 -0.00000500
0.40282989 0.84873056 -0.00000500
0.24150181 0.36513525 -0.00000500
0.29440850 0.08352840 -0.00000500
0.35073295 0.73607093 -0.00000500
0.30223078 0.42550826 -0.00000500
-0.18568879 0.69424391 -0.00000500
-0.26644868 0.92490363 -0.00000500
0.40906125 0.60592633 -0.00000500
0.08008426 0.49350452 -0.00000500
0.61998338 -0.46893448 -0.00000500
0.31066510 0.27384061 -0.00000500
0.23472288 0.04373956 -0.00000500
0.10301739 0.66890556 -0.00000500
-0.29177237 0.74902987 -0.00000500
0.32403114 0.39047658 -0.00000500
0.54822171 -0.29034907 -0.00000500
0.35696083 0.69342768 -0.00000500
-0.03663850 0.08201468 -0.00000500
0.40529642 0.84605384 -0.00000500
0.65391076 -0.04998821 -0.00000500
-0.55160916 0.96337312 -0.00000500
0.04327881 0.03369206 -0.00000500
-0.00331855 0.02201211 -0.00000500
0.28891701 -0.30841511 -0.00000500
-0.55540287 0.79588211 -0.00000500
0.09665215 0.09145546 -0.00000500
0.01051003 0.05904788 -0.00000500
0.07659483 0.11936611 -0.00000500
0.46809042 0.56079710 -0.00000500
0.67980993 -0.68609017 -0.00000500
0.54833215 -0.00852007 -0.00000500
-0.34245265 0.99182254 -0.00000500
0.40371096 0.80264741 -0.00000500
0.57846284 0.70484650 -0.00000500
0.61657113 0.24458736 -0.00000500
-0.19780040 0.85086495 -0.00000500
-0.10048813 0.40207624 -0.00000500
0.10885197 0.35117275 -0.00000500
0.05787653 0.82946658 -0.00000500
0.13766390 0.79291368 -0.00000500
0.25950873 0.84067410 -0.00000500
-0.18731642 0.72173905 -0.00000500
-0.25718796 0.47423220 -0.00000500
0.36848789 -0.17908567 -0.00000500
-0.09141713 0.28182405 -0.00000500
0.34712797 0.72974241 -0.00000500
0.36921376 0.90422839 -0.00000500
0.44255596 -0.27619332 -0.00000500
0.13188010 0.05898744 -0.00000500
0.43545932 0.28684121 -0.00000500
0.24623811 0.59743595 -0.00000500
0.00497907 0.68970776 -0.00000500
-0.03073955 0.36981225 -0.00000500
-0.57769597 0.92395955 -0.00000500
-0.03493148 0.23679727 -0.00000500
0.12798554 0.37984592 -0.00000500
0.21512777 0.51855814 -0.00000500
0.45456478 0.76350129 -0.00000500
-0.03087336 0.94354618 -0.00000500
0.54204351 0.91791826 -0.00000500
-0.48899376 0.79530054 -0.00000500
-0.23021173 0.74623859 -0.00000500
0.28387707 0.31136119 -0.00000500
0.26152933 0.07497203 -0.00000500
0.04226458 0.51552474 -0.00000500
0.47463298 0.91672117 -0.00000500
0.53751177 0.86345720 -0.00000500
-0.43638361 0.97266686 -0.00000500
-0.18821758 0.59573328 -0.00000500
0.54772079 0.00245333 -0.00000500
0.16637510 0.51329625 -0.00000500
0.24520302 -0.36199412 -0.00000500
-0.33688188 0.45663163 -0.00000500
-0.63200545 0.78496003 -0.00000500
-0.54850185 0.71944046 -0.00000500
-0.37295407 0.49805781 -0.00000500
-0.55070847 0.75157344 -0.00000500
-0.34884077 0.41686076 -0.00000500
-0.05609262 0.05856162 -0.00000500
-0.25210309 0.34122595 -0.00000500
0.30163532 -0.44575614 -0.00000500
-0.05117387 0.03432309 -0.00000500
-0.33129478 0.39397746 -0.00000500
-0.54823369 0.68066531 -0.00000500
-0.17600805 0.24167642 -0.00000500
-0.05226338 0.03978787 -0.00000500
-0.58870882 0.82313454 -0.00000500
-0.00437617 -0.58242261 -0.00000500
-0.45575395 -0.34072500 -0.00000500
-0.57987517 -0.13877243 -0.00000500
-0.69217503 -0.51378137 -0.00000500
-0.43560824 -0.13656011 -0.00000500
-0.67977703 0.39327475 -0.00000500
0.24304044 -0.76949620 -0.00000500
-0.03574419 -0.43017673 -0.00000500
0.46354324 -0.75829476 -0.00000500
-0.36005983 -0.66615206 -0.00000500
-0.25279853 -0.25425875 -0.00000500
0.31092280 -0.81056291 -0.00000500
0.21750945 -0.78140974 -0.00000500
-0.58581072 -0.47778916 -0.00000500
-0.07675254 -0.80062234 -0.00000500
-0.62290561 0.39287812 -0.00000500
-0.34639019 0.00457445 -0.00000500
-0.29650450 -0.65290278 -0.00000500
-0.00386751 -0.91404963 -0.00000500
-0.58089364 0.62094527 -0.00000500
-0.56070697 -0.12941790 -0.00000500
-0.52598965 -0.22736800 -0.00000500
-0.62319463 0.50034726 -0.00000500
0.08013070 -0.37566108 -0.00000500
-0.69097322 -0.65282112 -0.00000500
-0.36684290 0.32651547 -0.00000500
-0.61687136 -0.43694812 -0.00000500
0.41678232 -0.85106117 -0.00000500
-0.32593524 -0.19557491 -0.00000500
-0.63196260 0.40392563 -0.00000500
-0.25991020 -0.78000951 -0.00000500
-0.54420859 0.39631793 -0.00000500
-0.52709973 -0.74666679 -0.00000500
0.23239189 -0.52919996 -0.00000500
-0.46384817 -0.19343728 -0.00000500
-0.15092820 -0.36414370 -0.00000500
-0.13466501 -0.03741987 -0.00000500
0.52067095 -0.92163253 -0.00000500
0.01699156 -0.16777891 -0.00000500
-0.27530479 -0.51280725 -0.00000500
0.26879537 -0.87141943 -0.00000500
-0.12942898 -0.26286787 -0.00000500
-0.56117266 0.17013645 -0.00000500
0.16432816 -0.69192469 -0.00000500
-0.51755941 -0.64796102 -0.00000500
0.15344745 -0.84657949 -0.00000500
-0.42553711 0.42774290 -0.00000500
-0.21782294 -0.54817384 -0.00000500
-0.29597118 -0.21046406 -0.00000500
-0.57705772 -0.43800056 -0.00000500
-0.42768309 -0.02222899 -0.00000500
0.07462138 -0.86988193 -0.00000500
-0.54292500 0.39552689 -0.00000500
-0.60564888 0.46937862 -0.00000500
0.68511409 -0.97856414 -0.00000500
-0.11612082 0.06776416 -0.00000500
-0.40130234 -0.05687565 -0.00000500
-0.63202012 -0.55888522 -0.00000500
0.53818196 -0.84753728 -0.00000500
0.24987376 -0.51769954 -0.00000500
0.27137071 -0.90024292 -0.00000500
-0.08790535 -0.23087028 -0.00000500
-0.58984244 -0.29505581 -0.00000500
-0.62847805 0.31625307 -0.00000500
-0.70656413 0.69198805 -0.00000500
-0.59275687 -0.71869099 -0.00000500
0.08379418 -0.62551767 -0.00000500
-0.49475640 0.47533476 -0.00000500
-0.29920557 -0.41913062 -0.00000500
-0.02478468 -0.31452212 -0.00000500
-0.48885506 -0.25039226 -0.00000500
0.06574059 -0.52954125 -0.00000500
-0.68604320 -0.11970657 -0.00000500
-0.43573835 -0.13529360 -0.00000500
0.22852552 -0.64817679 -0.00000500
-0.68946016 -0.54547840 -0.00000500
-0.61208320 -0.59332627 -0.00000500
-0.26935664 -0.86688143 -0.00000500
-0.22802454 0.05980918 -0.00000500
0.58852237 -0.86709958 -0.00000500
-0.69674015 -0.46400589 -0.00000500
-0.00203681 -0.57095277 -0.00000500
-0.50278378 -0.71213424 -0.00000500
-0.42833775 0.21055391 -0.00000500
-0.29440537 -0.00882855 -0.00000500
-0.70078975 -0.64103717 -0.00000500
-0.33026025 0.03320274 -0.00000500
-0.48817512 -0.10292000 -0.00000500
0.10199559 -0.84030306 -0.00000500
-0.24157938 -0.76685214 -0.00000500
-0.57925892 -0.10139936 -0.00000500
-0.35323420 0.16947310 -0.00000500
-0.68173176 -0.48917967 -0.00000500
-0.01759392 -0.27263308 -0.00000500
0.36639780 -0.86393106 -0.00000500
-0.41016158 0.29799271 -0.00000500
0.19669276 -0.47818470 -0.00000500
-0.61678225 -0.26605654 -0.00000500
0.03529239 -0.31525183 -0.00000500
-0.37284726 -0.21709922 -0.00000500
-0.36171284 -0.41329592 -0.00000500
0.08334899 -0.45028347 -0.00000500
0.00595665 -0.08312348 -0.00000500
0.47951692 -0.81693196 -0.00000500
-0.53431946 0.10608977 -0.00000500
-0.53870851 -0.26238996 -0.00000500
0.07663476 -0.63545042 -0.00000500
-0.26776153 -0.83051938 -0.00000500
-0.33926514 -0.69729489 -0.00000500
-0.63299465 -0.66109216 -0.00000500
-0.00761229 -0.59210241 -0.00000500
0.26563978 -0.59850127 -0.00000500
-0.24685201 -0.69733113 -0.00000500
-0.63428831 -0.17971808 -0.00000500
-0.45511308 -0.42980194 -0.00000500
-0.06538260 -0.16103579 -0.00000500
-0.15891755 -0.44295925 -0.00000500
-0.61201745 0.25861120 -0.00000500
-0.53247261 -0.32132512 -0.00000500
-0.33479881 -0.21926114 -0.00000500
-0.10691565 -0.10960494 -0.00000500
-0.41291335 0.26195779 -0.00000500
0.22491425 -0.89164239 -0.00000500
0.11805546 -0.32146490 -0.00000500
-0.15244734 -0.42603701 -0.00000500
0.38600606 -0.64034456 -0.00000500
-0.42268285 -0.81871808 -0.00000500
-0.48087782 -0.60244763 -0.00000500
0.13971955 -0.61061442 -0.00000500
0.11776847 -0.59898418 -0.00000500
-0.55107617 -0.18902171 -0.00000500
-0.05419099 -0.33066002 -0.00000500
-0.62796485 0.34748662 -0.00000500
-0.62910211 0.33859834 -0.00000500
-0.01337844 -0.30793181 -0.00000500
-0.47245038 0.40734661 -0.00000500
-0.66808069 0.78878140 -0.00000500
0.65681106 -0.96632046 -0.00000500
0.02258158 -0.11814930 -0.00000500
-0.63663411 -0.40543151 -0.00000500
-0.63963246 0.29765341 -0.00000500
0.21332234 -0.88701278 -0.00000500
-0.00172096 -0.31588897 -0.00000500
-0.55072820 0.26176709 -0.00000500
0.11895430 -0.48275945 -0.00000500
-0.09775215 -0.88584179 -0.00000500
-0.60690498 0.57031810 -0.00000500
0.47571212 -0.87643790 -0.00000500
-0.66006935 -0.75428659 -0.00000500
-0.45152229 0.01605874 -0.00000500
-0.33498901 -0.10688666 -0.00000500
0.23378080 -0.56060195 -0.00000500
0.00888497 -0.60455102 -0.00000500
-0.67451990 0.01470107 -0.00000500
-0.19719785 -0.06610319 -0.00000500
-0.43524694 0.28872138 -0.00000500
-0.62355250 -0.43102199 -0.00000500
-0.30729809 -0.76597333 -0.00000500
-0.36506817 -0.32362184 -0.00000500
-0.26751322 -0.48395032 -0.00000500
-0.67200494 0.66962159 -0.00000500
-0.38292837 0.25423884 -0.00000500
-0.28040469 0.05374222 -0.00000500
-0.43844301 0.14731506 -0.00000500
-0.37271053 -0.59973782 -0.00000500
-0.09254581 -0.53422612 -0.00000500
-0.69494653 0.76539755 -0.00000500
-0.04355234 -0.15105689 -0.00000500
0.17625678 -0.38301757 -0.00000500
0.12255049 -0.86131775 -0.00000500
-0.39185140 -0.49189356 -0.00000500
-0.53797227 0.24393871 -0.00000500
-0.63259828 0.56103683 -0.00000500
-0.60918868 -0.36317992 -0.00000500
-0.48718485 -0.40606117 -0.00000500
-0.15380996 -0.87482405 -0.00000500
-0.62978816 0.12324554 -0.00000500
0.09970951 -0.74828470 -0.00000500
-0.41345966 0.05101222 -0.00000500
-0.33393914 0.07235265 -0.00000500
-0.30830586 -0.47943604 -0.00000500
-0.31898895 -0.67614216 -0.00000500
-0.69801968 -0.69112122 -0.00000500
-0.65393776 -0.38986343 -0.00000500
0.02207661 -0.26170152 -0.00000500
-0.01917940 -0.81470484 -0.00000500
-0.24987417 0.18321280 -0.00000500
-0.06488460 -0.14072169 -0.00000500
-0.09942383 0.01279962 -0.00000500
-0.51304960 -0.75546086 -0.00000500
-0.44757566 -0.62642097 -0.00000500
-0.56784922 -0.93923926 -0.00000500
-0.47510615 -0.92724329 -0.00000500
-0.26433113 -0.93424237 -0.00000500
0.24081966 -0.97534639 -0.00000500
-0.66091418 -0.96908504 -0.00000500
-0.63873267 -0.91292930 -0.00000500
-0.21441346 -0.91968405 -0.00000500
-0.06360400 -0.92071015 -0.00000500
0.49594182 -0.98094308 -0.00000500
-0.37602577 -0.96907789 -0.00000500
-0.10188964 -0.96530300 -0.00000500
-0.11470670 -0.91730142 -0.00000500
-0.70394021 -0.87416381 -0.00000500
-0.28994423 -0.98828429 -0.00000500
-0.23288319 -0.92998570 -0.00000500
-0.71895540 -0.90945917 -0.00000500
-0.76704347 -0.90536302 -0.00000500
-0.78430402 -0.33781797 -0.00000500
-0.78151095 0.72269344 -0.00000500
-0.76984572 -0.22710407 -0.00000500
-0.74649173 -0.10158700 -0.00000500
-0.77874738 -0.00181901 -0.00000500
-0.72863179 -0.68134528 -0.00000500
-0.75255436 0.07691544 -0.00000500
-0.78676403 -0.25301260 -0.00000500
-0.76787734 -0.43000680 -0.00000500
-0.75699914 -0.69115341 -0.00000500
-0.72284317 0.18419838 -0.00000500
-0.76150018 0.75840449 -0.00000500
-0.72201777 -0.28301352 -0.00000500
-0.73819429 0.28846312 -0.00000500
-0.72917283 -0.21021265 -0.00000500
-0.71024084 0.21907496 -0.00000500
-0.72120547 0.84925550 -0.00000500
-0.73647648 0.83253115 -0.00000500
-0.72136027 -0.51621920 -0.00000500
-0.71921343 -0.27196640 -0.00000500
-0.72098869 -0.33870107 -0.00000500
-0.72605997 0.70482576 -0.00000500
-0.71782011 0.47668207 -0.00000500
-0.72283894 0.12790632 -0.00000500
-0.75126964 0.32283086 -0.00000500
-0.71345425 0.70184410 -0.00000500
-0.75189459 0.84933430 -0.00000500
-0.75420779 0.37584943 -0.00000500
-0.72760648 0.58254921 -0.00000500
-0.74680120 0.37554699 -0.00000500
-0.73810059 -0.09813899 -0.00000500
-0.75038511 -0.24893785 -0.00000500
-0.77357328 -0.73473644 -0.00000500
-0.77809376 -0.59891117 -0.00000500
-0.76755613 -0.09659511 -0.00000500
-0.78470051 -0.29831249 -0.00000500
-0.76723373 0.15772712 -0.00000500
-0.77880931 0.28929615 -0.00000500
-0.73349845 -0.53050339 -0.00000500
-0.72967273 -0.76209879 -0.00000500
-0.77930439 -0.72382599 -0.00000500
-0.75595957 -0.64447963 -0.00000500
0.72518599 0.88819528 -0.00000500
0.76540381 0.90751153 -0.00000500
0.72435302 0.99409503 -0.14881378
0.74890023 0.99409503 -0.20412743
0.76116222 0.99409503 -0.16181843
0.78740001 0.86665672 -0.17925262
0.78740001 0.87201792 -0.25455856
0.78740001 0.91015667 -0.26067728
0.78740001 0.88629997 -0.02160763
0.78740001 0.94648635 -0.05890333
0.78740001 0.98507237 -0.20501053
-0.74830484 0.93823606 -0.27559501
-0.78128654 0.51451862 -0.27559501
-0.77687752 -0.38136625 -0.27559501
-0.74070352 0.52746832 -0.27559501
-0.78548610 0.42612359 -0.27559501
-0.77168196 -0.44125926 -0.27559501
-0.76022327 0.75683105 -0.27559501
-0.77789730 -0.08068341 -0.27559501
-0.75640625 0.75900644 -0.27559501
-0.74222392 0.73749363 -0.27559501
-0.73435932 0.64891148 -0.27559501
-0.72374558 0.70524561 -0.27559501
-0.74098504 0.21159434 -0.27559501
-0.74041903 -0.41578460 -0.27559501
-0.71742719 -0.25897306 -0.27559501
-0.71585035 0.33002716 -0.27559501
-0.72363937 -0.18362808 -0.27559501
-0.71549672 -0.13479066 -0.27559501
-0.72792906 -0.64337867 -0.27559501
-0.73645139 0.14775604 -0.27559501
-0.72977746 0.12619346 -0.27559501
-0.71051377 -0.64147997 -0.27559501
-0.75411463 -0.80706686 -0.27559501
-0.75049388 -0.60971713 -0.27559501
-0.75804430 -0.76309216 -0.27559501
-0.48999318 0.83992422 -0.27559501
0.41568393 0.94683480 -0.27559501
-0.29504210 0.01554942 -0.27559501
-0.62468266 -0.56062067 -0.27559501
-0.55971420 -0.01667568 -0.27559501
-0.57905596 0.94734550 -0.27559501
-0.35522950 0.51228690 -0.27559501
0.08126944 0.93671423 -0.27559501
-0.46022177 -0.40589523 -0.27559501
-0.55578929 0.86997235 -0.27559501
-0.17672312 0.45082533 -0.27559501
-0.49678376 -0.58045787 -0.27559501
-0.24838814 0.38365179 -0.27559501
0.24987781 0.94783324 -0.27559501
-0.51451826 0.40631366 -0.27559501
-0.55432248 0.37427139 -0.27559501
-0.51635277 0.28757152 -0.27559501
0.24957824 0.74755913 -0.27559501
0.06901217 0.68647414 -0.27559501
-0.51228124 0.51544774 -0.27559501
0.40604037 0.62908745 -0.27559501
-0.19961220 -0.00593579 -0.27559501
0.08199859 0.23192430 -0.27559501
-0.13428563 0.25972849 -0.27559501
-0.15882760 0.20702583 -0.27559501
0.36046606 0.77682507 -0.27559501
-0.69151407 -0.72710985 -0.27559501
-0.18840080 -0.24239749 -0.27559501
0.46849030 0.94336987 -0.27559501
-0.59384245 0.15310244 -0.27559501
0.46118873 0.75734925 -0.27559501
-0.51820529 -0.34394339 -0.27559501
-0.65738809 -0.16245645 -0.27559501
-0.21930537 0.96818894 -0.27559501
-0.63997912 -0.47532257 -0.27559501
0.30889159 0.48412114 -0.27559501
0.00858074 0.55156267 -0.27559501
-0.12527132 0.59587210 -0.27559501
-0.18004191 0.52603722 -0.27559501
-0.60568631 0.00122206 -0.27559501
-0.32563415 0.29841053 -0.27559501
-0.42566231 -0.31909537 -0.27559501
0.01960438 0.50726008 -0.27559501
-0.25376987 0.00863308 -0.27559501
-0.52151173 0.46856117 -0.27559501
-0.34544414 -0.14096051 -0.27559501
-0.51614767 0.92855418 -0.27559501
0.04382974 0.42775297 -0.27559501
0.06665725 0.53921831 -0.27559501
-0.06856608 0.88096356 -0.27559501
-0.01690596 0.00360775 -0.27559501
-0.61152714 0.31324142 -0.27559501
-0.69692397 0.82074118 -0.27559501
-0.21069232 0.50992155 -0.27559501
0.44365984 0.96918726 -0.27559501
-0.08204341 -0.03740609 -0.27559501
-0.65977800 0.60239691 -0.27559501
-0.47310111 -0.27954590 -0.27559501
-0.23178136 0.16317111 -0.27559501
-0.30558738 -0.31335223 -0.27559501
0.55012268 0.88626277 -0.27559501
-0.41695753 0.98737556 -0.27559501
0.09389573 0.34841025 -0.27559501
-0.32063997 0.78253287 -0.27559501
0.63054687 0.92591089 -0.27559501
-0.53643775 0.67574251 -0.27559501
-0.57153279 -0.52638429 -0.27559501
-0.24078161 0.15393889 -0.27559501
0.14865977 0.57865262 -0.27559501
0.62573689 0.88020754 -0.27559501
-0.38415423 -0.36874041 -0.27559501
0.25905341 0.47285485 -0.27559501
-0.12289310 0.19326705 -0.27559501
-0.26385561 0.42523384 -0.27559501
-0.01872361 0.91506380 -0.27559501
0.28421926 0.63644445 -0.27559501
-0.12290877 0.40643251 -0.27559501
-0.52642119 0.74182999 -0.27559501
-0.06401277 0.41625810 -0.27559501
0.23309451 0.70310891 -0.27559501
0.28237861 0.80001700 -0.27559501
-0.53164154 0.61714166 -0.27559501
0.45514423 0.97130746 -0.27559501
-0.66093367 0.03822192 -0.27559501
0.27808303 0.55733097 -0.27559501
-0.36331284 -0.01059878 -0.27559501
-0.60717177 0.73572373 -0.27559501
-0.09262234 0.65134156 -0.27559501
-0.66676790 0.25425747 -0.27559501
0.63169676 0.99223006 -0.27559501
-0.43300825 0.95133001 -0.27559501
-0.54572809 0.27398503 -0.27559501
-0.56610775 -0.41025466 -0.27559501
-0.54869944 -0.58948833 -0.27559501
-0.10684961 0.78756654 -0.27559501
-0.51242626 0.45639220 -0.27559501
-0.33960491 0.37863588 -0.27559501
-0.32509074 0.58185738 -0.27559501
-0.41197732 -0.49754915 -0.27559501
-0.67733002 0.65179205 -0.27559501
-0.70459193 -0.45028773 -0.27559501
-0.08627558 0.67094046 -0.27559501
-0.53642285 0.48127672 -0.27559501
-0.21083549 0.11205059 -0.27559501
-0.68533349 -0.95356411 -0.27559501
0.08029687 0.67907602 -0.27559501
-0.40846321 0.61747986 -0.27559501
-0.40442747 0.35944638 -0.27559501
0.27563256 0.43179095 -0.27559501
-0.56149960 -0.48105556 -0.27559501
-0.69576782 -0.94962138 -0.27559501
-0.25363156 0.52328104 -0.27559501
-0.17185152 0.40603167 -0.27559501
-0.56415755 -0.18433920 -0.27559501
-0.34018883 0.66889101 -0.27559501
-0.40763000 -0.25772884 -0.27559501
-0.24801424 0.34596068 -0.27559501
-0.32020238 0.79507840 -0.27559501
-0.34911129 0.34823149 -0.27559501
-0.61304069 0.73370838 -0.27559501
-0.56884074 0.00736284 -0.27559501
0.40262944 0.95484018 -0.27559501
0.09872490 0.67350650 -0.27559501
0.23915070 0.87199873 -0.27559501
-0.64891917 -0.86437696 -0.27559501
0.10029268 0.98223704 -0.27559501
-0.70840579 -0.12632285 -0.27559501
0.18138254 0.62146854 -0.27559501
-0.47742772 0.72185159 -0.27559501
-0.46566340 0.53829718 -0.27559501
-0.16445053 0.33815211 -0.27559501
0.39198166 0.81086755 -0.27559501
-0.08619559 -0.04075497 -0.27559501
-0.41767082 0.34281704 -0.27559501
0.30108625 0.65141004 -0.27559501
0.22293079 0.50958824 -0.27559501
0.35544330 0.64903641 -0.27559501
-0.05437160 0.54767400 -0.27559501
0.21085256 0.93208927 -0.27559501
-0.36867335 0.22263330 -0.27559501
-0.11398536 0.45022440 -0.27559501
-0.24934456 -0.16339850 -0.27559501
0.07746792 0.95179117 -0.27559501
-0.30115661 0.27709478 -0.27559501
-0.51885521 0.02279487 -0.27559501
0.30832297 0.72298014 -0.27559501
0.15168428 0.63642621 -0.27559501
-0.13103640 0.70541376 -0.27559501
0.60746104 0.90134877 -0.27559501
-0.42865303 0.53990829 -0.27559501
0.03803033 0.42350101 -0.27559501
-0.42575458 0.05057380 -0.27559501
-0.01129586 0.78441077 -0.27559501
-0.10631937 0.98497105 -0.27559501
-0.58998072 0.15232231 -0.27559501
0.09066159 0.70429313 -0.27559501
-0.06943929 0.19031763 -0.27559501
-0.68937230 0.19274008 -0.27559501
-0.04411954 0.57589900 -0.27559501
-0.52242309 -0.33357912 -0.27559501
-0.62249243 0.86714017 -0.27559501
-0.20451003 -0.24797052 -0.27559501
-0.02739692 0.62101907 -0.27559501
-0.06899869 0.45699006 -0.27559501
-0.36814922 -0.16819853 -0.27559501
-0.17621320 -0.07798672 -0.27559501
-0.42091468 -0.18936887 -0.27559501
-0.01850814 0.19141418 -0.27559501
-0.13984746 0.19849312 -0.27559501
-0.33346117 0.18407023 -0.27559501
0.00299287 0.56241608 -0.27559501
-0.16484427 -0.14948678 -0.27559501
-0.29076809 -0.17893767 -0.27559501
-0.70171297 -0.85119230 -0.27559501
-0.49138540 0.75847673 -0.27559501
-0.36157051 0.42532748 -0.27559501
-0.26017556 0.60912627 -0.27559501
0.08073944 0.23159552 -0.27559501
-0.49745721 -0.29386035 -0.27559501
-0.19004774 -0.08122474 -0.27559501
-0.67729318 0.87513363 -0.27559501
-0.51760942 -0.67707026 -0.27559501
-0.65980232 -0.38341105 -0.27559501
0.15621924 0.72773653 -0.27559501
-0.30002177 0.44829291 -0.27559501
-0.22218031 0.04226953 -0.27559501
-0.11708629 -0.04530323 -0.27559501
-0.35548034 0.39849645 -0.27559501
-0.15072429 0.24352539 -0.27559501
-0.07273978 0.36211002 -0.27559501
0.51282984 0.89935243 -0.27559501
-0.54329830 -0.53509343 -0.27559501
-0.22165689 0.06966889 -0.27559501
-0.13078845 0.88294441 -0.27559501
-0.48078609 0.67625821 -0.27559501
0.41058475 0.69463533 -0.27559501
-0.61607039 0.40230879 -0.27559501
-0.51271361 -0.04950681 -0.27559501
-0.54533392 -0.58540744 -0.27559501
-0.08857793 0.05414271 -0.27559501
-0.43795165 0.72744137 -0.27559501
-0.51436180 0.97705746 -0.27559501
-0.67702174 -0.72817242 -0.27559501
-0.31371620 0.34014499 -0.27559501
-0.46296355 -0.20119798 -0.27559501
-0.68573117 -0.61840516 -0.27559501
-0.16904211 -0.16877776 -0.27559501
0.06549001 0.59259748 -0.27559501
0.61714286 0.86588705 -0.27559501
-0.55761522 0.77206874 -0.27559501
0.40817803 0.65133744 -0.27559501
0.02216029 0.85224736 -0.27559501
-0.35533327 0.98246443 -0.27559501
0.10812658 0.91713554 -0.27559501
0.14419985 0.87461132 -0.27559501
-0.38086671 0.90979934 -0.27559501
0.21570259 0.98819214 -0.27559501
-0.63698304 0.18952464 -0.27559501
-0.29230684 0.08871010 -0.27559501
-0.15282333 0.52125961 -0.27559501
-0.69696689 -0.63029885 -0.27559501
0.21073049 0.58944798 -0.27559501
0.17270479 -0.30289108 -0.27559501
0.38473186 -0.03172827 -0.27559501
0.05475193 -0.72119522 -0.27559501
0.14843795 -0.23813766 -0.27559501
-0.00685531 -0.44359505 -0.27559501
0.53544396 -0.36796808 -0.27559501
0.50814342 -0.18870491 -0.27559501
0.63383704 0.18476921 -0.27559501
-0.05727991 -0.35360241 -0.27559501
-0.26333645 -0.79070133 -0.27559501
0.23213394 0.09535009 -0.27559501
0.44136143 -0.89077735 -0.27559501
0.36604407 0.30583650 -0.27559501
0.15697023 -0.36710459 -0.27559501
0.63224053 -0.51238048 -0.27559501
0.04172927 -0.81051153 -0.27559501
0.50707752 -0.04489893 -0.27559501
0.11950666 -0.76528376 -0.27559501
0.57829213 0.47201198 -0.27559501
0.39405003 -0.43489653 -0.27559501
0.07765168 -0.08389342 -0.27559501
0.27239791 0.16963404 -0.27559501
0.53128946 0.73488623 -0.27559501
0.40073252 -0.88701004 -0.27559501
0.23193535 -0.35837519 -0.27559501
0.68053961 0.36510593 -0.27559501
0.42655972 -0.38147378 -0.27559501
0.23090827 -0.79617798 -0.27559501
0.69802833 0.82342857 -0.27559501
0.27583456 0.10226589 -0.27559501
0.38027585 -0.91738486 -0.27559501
0.02094713 -0.65430892 -0.27559501
-0.56579024 -0.91312730 -0.27559501
0.32279539 -0.11902219 -0.27559501
0.23847374 -0.17651492 -0.27559501
0.44283623 0.30839461 -0.27559501
0.51652575 0.32006329 -0.27559501
0.59141523 -0.04258007 -0.27559501
-0.12111884 -0.54716659 -0.27559501
0.47630596 0.60039586 -0.27559501
0.09438321 -0.30821496 -0.27559501
0.62734652 -0.38570946 -0.27559501
0.63502514 -0.50234759 -0.27559501
-0.36142069 -0.71925020 -0.27559501
0.29126343 0.38256770 -0.27559501
0.31014687 -0.35798317 -0.27559501
0.67800426 -0.19705462 -0.27559501
0.01463915 -0.29339725 -0.27559501
0.69643342 -0.21036488 -0.27559501
0.57231629 -0.16095841 -0.27559501
-0.31452826 -0.95322394 -0.27559501
-0.00948182 -0.09228736 -0.27559501
0.54055196 0.43081945 -0.27559501
0.43275568 -0.52312160 -0.27559501
0.57463151 0.56714410 -0.27559501
0.56409270 0.69930595 -0.27559501
-0.16539232 -0.37318891 -0.27559501
0.02890003 -0.71436942 -0.27559501
0.23915476 -0.82203788 -0.27559501
-0.40237492 -0.71964037 -0.27559501
0.15491638 -0.01889408 -0.27559501
0.09017089 -0.66570443 -0.27559501
0.49612138 -0.51041019 -0.27559501
0.11145762 -0.26770949 -0.27559501
0.18071008 -0.89809006 -0.27559501
0.08856693 -0.43792701 -0.27559501
0.40170947 0.12177724 -0.27559501
0.19535401 -0.35527253 -0.27559501
0.64596856 0.25103182 -0.27559501
0.52111679 0.11665231 -0.27559501
0.28053826 0.23896974 -0.27559501
0.67612904 0.76185209 -0.27559501
-0.47827908 -0.92013520 -0.27559501
0.37443060 -0.18303931 -0.27559501
0.00291747 -0.60539204 -0.27559501
-0.37143296 -0.83271909 -0.27559501
0.57253277 -0.85400420 -0.27559501
-0.23813429 -0.41368544 -0.27559501
-0.60991991 -0.93219787 -0.27559501
0.65199780 -0.49166977 -0.27559501
0.70187777 0.19184273 -0.27559501
0.32876796 -0.41467261 -0.27559501
0.65883160 0.21832079 -0.27559501
0.24126770 0.11104995 -0.27559501
0.17865735 0.14767891 -0.27559501
-0.05954042 -0.23649114 -0.27559501
0.35319042 -0.06733519 -0.27559501
-0.02684665 -0.58763134 -0.27559501
-0.24511555 -0.83106542 -0.27559501
0.65421021 0.88667351 -0.27559501
0.65284932 -0.82683837 -0.27559501
0.02485663 -0.83157927 -0.27559501
0.50787687 0.56217998 -0.27559501
0.18263736 -0.30376172 -0.27559501
0.15565151 -0.56203902 -0.27559501
-0.53511465 -0.93358356 -0.27559501
0.41357887 -0.81302834 -0.27559501
0.44493753 -0.24654227 -0.27559501
0.63260996 0.22962850 -0.27559501
0.63152719 -0.90170252 -0.27559501
0.38945612 0.44680196 -0.27559501
0.52444005 0.48754054 -0.27559501
0.54267001 -0.30363429 -0.27559501
0.70857334 -0.45266771 -0.27559501
0.43865681 0.33705527 -0.27559501
0.40521079 -0.49677211 -0.27559501
0.42309046 0.33722252 -0.27559501
0.46527812 -0.67697346 -0.27559501
0.04069197 -0.94190782 -0.27559501
0.29761887 -0.79929030 -0.27559501
-0.06150949 -0.86871397 -0.27559501
0.39442334 -0.38311613 -0.27559501
0.44903031 0.29377955 -0.27559501
-0.19152251 -0.91398829 -0.27559501
0.11924303 -0.87997067 -0.27559501
-0.43409643 -0.96671903 -0.27559501
-0.07561105 -0.82246590 -0.27559501
0.52563506 -0.66503429 -0.27559501
-0.39810717 -0.62295830 -0.27559501
-0.02209693 -0.97989309 -0.27559501
0.48836643 0.49078530 -0.27559501
0.43963096 0.29015070 -0.27559501
0.70080996 -0.65922034 -0.27559501
0.23802954 -0.90918219 -0.27559501
0.60662180 -0.39737672 -0.27559501
0.36831459 0.44866854 -0.27559501
0.44964635 -0.97040975 -0.27559501
0.43473485 0.55881923 -0.27559501
0.19825780 -0.46732157 -0.27559501
0.41198951 0.45737702 -0.27559501
0.50506198 0.18603271 -0.27559501
0.19797319 -0.14679122 -0.27559501
0.57372367 0.00204289 -0.27559501
0.63512552 0.24869448 -0.27559501
0.42439473 0.44488162 -0.27559501
0.04634152 -0.21926320 -0.27559501
-0.44613323 -0.85119379 -0.27559501
0.58593518 0.51813895 -0.27559501
0.69732392 0.31699497 -0.27559501
0.42457834 -0.53858435 -0.27559501
-0.35703772 -0.68620384 -0.27559501
-0.01183715 -0.53886694 -0.27559501
-0.25792241 -0.62330222 -0.27559501
0.64411557 -0.17298889 -0.27559501
-0.07188397 -0.14118677 -0.27559501
-0.01389974 -0.96290994 -0.27559501
0.14679015 -0.76859295 -0.27559501
0.34063828 -0.34264469 -0.27559501
0.02131253 -0.79068053 -0.27559501
0.53215027 0.39635426 -0.27559501
0.58890104 0.05887800 -0.27559501
0.18503588 -0.52702963 -0.27559501
0.50107825 -0.24382418 -0.27559501
0.47920024 0.05198032 -0.27559501
-0.13390797 -0.56037086 -0.27559501
0.43597430 -0.63921893 -0.27559501
-0.07139629 -0.79498905 -0.27559501
0.48922023 -0.54247242 -0.27559501
0.06164950 -0.99070406 -0.27559501
0.37578979 0.23369712 -0.27559501
0.40410328 0.04707640 -0.27559501
0.00499286 -0.24571896 -0.27559501
-0.35035384 -0.55990887 -0.27559501
0.60687196 -0.47398198 -0.27559501
0.00219598 -0.35681880 -0.27559501
-0.63027644 -0.89435685 -0.27559501
0.61850780 0.46992880 -0.27559501
0.48826617 -0.95593703 -0.27559501
0.22573906 -0.92766434 -0.27559501
0.08039403 -0.71818161 -0.27559501
-0.01149702 -0.75628448 -0.27559501
-0.09197915 -0.88843441 -0.27559501
-0.18339905 -0.83156383 -0.27559501
0.70652157 0.04114789 -0.27559501
0.11463732 -0.63074124 -0.27559501
0.40277719 0.22079188 -0.27559501
0.57863176 0.66076225 -0.27559501
0.55570042 0.03046924 -0.27559501
0.68811107 0.52751440 -0.27559501
0.17802891 -0.15137982 -0.27559501
0.53232700 -0.59749830 -0.27559501
0.43102017 -0.41728026 -0.27559501
0.51693636 -0.77910697 -0.27559501
0.47198546 -0.91706812 -0.27559501
0.35494322 0.23180443 -0.27559501
0.24116361 -0.90683657 -0.27559501
0.41241008 -0.11355025 -0.27559501
0.58744705 -0.36806035 -0.27559501
0.13685411 -0.83360535 -0.27559501
-0.09665370 -0.53959471 -0.27559501
0.68533128 -0.88494658 -0.27559501
0.34853831 -0.36975026 -0.27559501
0.37066078 0.19817239 -0.27559501
0.31895471 -0.15847516 -0.27559501
0.33465171 0.37659854 -0.27559501
0.53096735 -0.44217682 -0.27559501
0.08444911 -0.92559636 -0.27559501
0.09602639 -0.63959789 -0.27559501
-0.55163419 -0.92872250 -0.27559501
0.46197417 0.51151854 -0.27559501
0.61222798 0.43441147 -0.27559501
0.37923282 -0.79699939 -0.27559501
0.66801494 0.81238991 -0.27559501
-0.27208075 -0.81537902 -0.27559501
0.27318504 0.15839380 -0.27559501
-0.35822231 -0.97369212 -0.27559501
0.24384579 -0.55320477 -0.27559501
0.47667933 -0.34986484 -0.27559501
0.34320536 -0.63223541 -0.27559501
0.69051528 -0.47887576 -0.27559501
0.13215452 -0.57294655 -0.27559501
0.07414424 -0.87203807 -0.27559501
0.70138192 0.38635117 -0.27559501
0.29179764 -0.21067852 -0.27559501
-0.03145087 -0.05383623 -0.27559501
0.30174035 -0.93764454 -0.27559501
0.44732428 -0.75602525 -0.27559501
0.56983739 -0.53382152 -0.27559501
-0.11341374 -0.44840479 -0.27559501
-0.02699336 -0.37290645 -0.27559501
0.48948660 0.07056481 -0.27559501
0.53374511 -0.68463671 -0.27559501
0.73307437 0.62026334 -0.27559501
0.71468210 -0.10507439 -0.27559501
0.75686514 0.36119562 -0.27559501
0.75933510 0.49833840 -0.27559501
0.72922033 0.53006345 -0.27559501
0.71397662 -0.08827384 -0.27559501
0.71309102 0.69029677 -0.27559501
0.75469345 0.47173858 -0.27559501
0.74102116 0.78484160 -0.27559501
0.75796062 0.81884295 -0.27559501
0.72338563 0.96458733 -0.27559501
0.75341624 0.54291904 -0.27559501
0.76019818 -0.67198408 -0.27559501
0.76592845 0.06022958 -0.27559501
0.75308239 -0.74736923 -0.27559501
0.75198174 -0.87561500 -0.27559501
0.72819161 -0.58939403 -0.27559501
0.74777228 -0.90690160 -0.27559501
0.76902008 -0.07128473 -0.27559501
0.76797312 0.13792001 -0.27559501
0.78143185 0.38239676 -0.27559501
0.75891298 0.05536511 -0.27559501
0.76555109 0.05589518 -0.27559501
0.77242577 -0.98209077 -0.27559501
-0.72709119 0.99409503 0.21125904
-0.74592888 0.99409503 0.31023064
-0.75210035 0.99409503 0.31510687
-0.77411324 0.99409503 0.80766732
-0.77079231 0.99409503 0.29526389
-0.78282332 0.99409503 0.94034433
-0.73785686 0.99409503 0.07413828
-0.77328724 0.99409503 0.20224857
-0.77786589 0.99409503 1.25469267
-0.76938593 0.99409503 0.33543283
-0.73564833 0.99409503 0.59997249
-0.71804428 0.99409503 0.35922638
-0.76548934 0.99409503 1.28358901
-0.72032201 0.99409503 0.79476649
-0.39082259 0.99409503 0.60578334
-0.31753281 0.99409503 0.54357177
-0.60881090 0.99409503 0.60438204
-0.25898057 0.99409503 0.54720294
-0.36175615 0.99409503 0.61828631
-0.42977497 0.99409503 0.59009188
-0.29456943 0.99409503 0.57842755
-0.35680825 0.99409503 0.62065327
-0.26931861 0.99409503 0.57993644
-0.47570655 0.99409503 0.62557429
-0.44560322 0.99409503 0.65677083
-0.62473994 0.99409503 0.68924892
0.18862253 0.99409503 0.59694517
-0.70459050 0.99409503 0.58686960
-0.47147673 0.99409503 0.68061274
-0.25983164 0.99409503 0.57963777
-0.38312799 0.99409503 0.55813050
-0.21723285 0.99409503 0.57729930
-0.57737994 0.99409503 0.56812084
-0.74626815 0.99409503 1.27057374
-0.73497999 0.99409503 1.17654800
0.42594117 0.99409503 0.94458902
-0.28045043 0.99409503 0.96089935
-0.29578316 0.99409503 0.97404504
-0.35246009 0.99409503 0.95560920
-0.46364009 0.99409503 0.98831487
-0.15819335 0.99409503 0.97770536
-0.47339588 0.99409503 1.00298464
-0.22135612 0.99409503 0.98923790
-0.58495760 0.99409503 0.99464434
-0.65258598 0.99409503 0.97963125
-0.71937996 0.99409503 1.12426162
-0.73190850 0.99409503 1.31966102
-0.55697644 0.99409503 1.19093680
0.62699860 0.99409503 1.11946070
-0.68568057 0.99409503 1.14624465
-0.66343999 0.99409503 1.12357783
-0.25300181 0.99409503 1.16701794
0.08683866 0.99409503 1.12256896
-0.00658846 0.99409503 1.14806867
-0.65836710 0.99409503 1.17391896
-0.66672814 0.99409503 1.16130102
-0.28259742 0.99409503 1.11794460
-0.76462805 0.99409503 1.55127919
-0.71320355 0.99409503 1.37479186
-0.50448096 0.99409503 1.36067259
-0.45055771 0.99409503 1.31587327
-0.39551198 0.99409503 1.30696547
-0.05339384 0.99409503 1.34031057
0.14074492 0.99409503 1.32477117
-0.44630733 0.99409503 1.33368087
-0.46777207 0.99409503 1.30591989
0.18693912 0.99409503 1.30645740
-0.26819390 0.99409503 1.30585539
-0.30727217 0.99409503 1.30658185
-0.75711232 0.99409503 1.56494689
-0.55565393 0.99409503 1.58591974
-0.43538055 0.99409503 1.59180081
0.07921922 0.99409503 1.57901013
-0.75205070 0.99409503 1.63629723
-0.65857559 0.99409503 1.58241498
-0.53796178 0.99409503 1.61537910
-0.13468039 0.99409503 1.60398340
-0.20736843 0.99409503 1.60676563
0.07530516 0.99409503 1.58294773
0.75903654 0.99409503 0.06208946
0.72514898 0.99409503 0.37560630
0.71753407 0.99409503 0.30462265
0.77615625 0.99409503 0.10150975
0.73293585 0.99409503 0.87996519
0.74587929 0.99409503 0.44885463
0.74896157 0.99409503 0.97249067
0.78656155 0.99409503 1.36872637
0.76024348 0.99409503 0.92486423
0.76538503 0.99409503 0.16676894
0.74109614 0.99409503 0.86968678
0.78680354 0.99409503 0.18470472
0.77587140 0.99409503 0.61773807
0.72600085 0.99409503 0.83796430
-0.53597760 0.99409503 0.69132382
0.65781879 0.99409503 0.55333167
-0.33361340 0.99409503 0.67327678
0.60548890 0.99409503 0.66050267
-0.17836767 0.99409503 0.66036946
-0.55922866 0.99409503 0.70118541
0.29035634 0.99409503 0.66818208
0.39009383 0.99409503 0.68864685
0.34944895 0.99409503 0.68125939
0.12649506 0.99409503 0.65584004
0.36790627 0.99409503 0.65260422
0.51205933 0.99409503 0.68336385
0.42351818 0.99409503 0.62483013
-0.30547428 0.99409503 0.68315685
0.65184933 0.99409503 0.58168221
-0.19453275 0.99409503 0.70926070
0.53826642 0.99409503 0.61223727
0.52356625 0.99409503 0.69162351
-0.54730332 0.99409503 0.69367230
0.71448213 0.99409503 0.94066042
0.76402181 0.99409503 1.45750344
0.36295015 0.99409503 1.02293026
0.66495949 0.99409503 1.00997138
0.69124269 0.99409503 0.97649497
0.62225741 0.99409503 0.97168559
0.34983426 0.99409503 1.02501178
0.44217056 0.99409503 1.01527607
0.68795443 0.99409503 0.93935823
-0.07287544 0.99409503 1.00687897
0.36526939 0.99409503 0.95931000
0.57323039 0.99409503 0.98437291
0.18583488 0.99409503 0.99813199
0.62846190 0.99409503 1.12648034
-0.46317029 0.99409503 1.19171739
0.18485355 0.99409503 1.16656208
-0.36202860 0.99409503 1.19760132
0.52196360 0.99409503 1.19222116
0.32930765 0.99409503 1.14422941
-0.13816392 0.99409503 1.17639828
-0.59449875 0.99409503 1.19719040
0.53972024 0.99409503 1.15201533
0.71610725 0.99409503 1.33336949
-0.08443916 0.99409503 1.39266872
0.55993831 0.99409503 1.35922658
0.35203466 0.99409503 1.37531531
0.59852892 0.99409503 1.35020733
0.41943067 0.99409503 1.35865963
0.42011237 0.99409503 1.32426703
0.37340763 0.99409503 1.39211690
-0.64946914 0.99409503 1.39211023
-0.30689681 0.99409503 1.39080417
0.24904454 0.99409503 1.37858331
0.72157848 0.99409503 1.50033057
0.71585774 0.99409503 1.58204770
-0.04364192 0.99409503 1.62786055
-0.47565538 0.99409503 1.64725280
0.37579536 0.99409503 1.62431777
0.01864332 0.99409503 1.62261355
0.39658526 0.99409503 1.65353048
-0.19412047 0.99409503 1.62326407
-0.53380805 0.99409503 1.63924587
0.05033630 0.99409503 1.61890054
0.60432810 0.99409503 1.58171797
0.10804147 0.99409503 1.61376190
0.78740001 0.87539953 0.07454570
0.78740001 0.85634565 0.05112687
0.78740001 0.86329681 0.05999022
0.78740001 0.87131017 0.22983581
0.78740001 0.87767661 1.34619164
0.78740001 0.96164173 0.25001392
0.78740001 0.93652457 0.37424815
0.78740001 0.93832278 0.62301290
0.78740001 0.90712011 0.61594290
0.78740001 0.88414139 1.18009663
0.78740001 0.94167566 0.55731517
0.78740001 0.98070538 0.01466729
0.78740001 0.91918510 0.54070663
0.78740001 0.94598645 0.01920759
0.78740001 0.88595748 0.61626446
0.78740001 0.87690312 0.30808732
0.78740001 0.91081744 0.40139994
0.78740001 0.93232334 0.00109691
0.78740001 0.96652967 1.56465554
0.78740001 0.93364894 0.89484525
0.78740001 0.93368590 0.77768642
0.78740001 0.94513565 1.04821038
0.78740001 0.94396621 1.44752192
0.78740001 0.97383583 1.05963910
0.78740001 0.94145942 0.85946369
0.78740001 0.89143503 1.59464729
0.78740001 0.97750783 0.81833464
0.78740001 0.96558237 1.56708252
0.78740001 0.97413623 0.46872783
0.78740001 0.93403465 1.37690413
0.78740001 0.96496153 0.44267869
0.78740001 0.93878198 1.46602070
0.78740001 0.93204010 0.91013086
0.78740001 0.96742636 0.48184609
0.78740001 0.92730618 1.61186790
0.78740001 0.89640665 1.46493828
-0.72684276 0.99409503 -0.22416128
-0.73011911 0.99409503 -0.19282316
-0.71873426 0.99409503 -0.07356061
0.78740001 -0.94991070 -0.20085071
0.78740001 -0.89239323 -0.24256754
0.78740001 -0.97896671 -0.24908569
0.78740001 -0.90453351 -0.09009404
0.78740001 -0.91924775 -0.13271031
0.78740001 -0.88207269 -0.21905300
0.77382410 -0.99409503 -0.27474239
0.73888159 -0.99409503 -0.12316703
0.74129379 -0.99409503 -0.09723342
-0.74578083 -0.99409503 -0.20223193
-0.71569991 -0.99409503 -0.14893101
-0.78257042 -0.99409503 -0.13672581
-0.76179886 -0.99409503 -0.09423538
-0.78740001 -0.97569638 -0.16904165
-0.78740001 -0.88813257 -0.02309475
-0.78740001 -0.98706824 -0.07118481
-0.78740001 -0.89789140 -0.16557503
-0.78740001 -0.93343735 -0.22762489
-0.78740001 -0.86122328 -0.21698689
-0.78740001 0.86007136 -0.23085442
-0.78740001 0.92956018 -0.07698097
-0.78740001 0.91167152 -0.08056568
-0.78740001 0.90889770 -0.20929739
-0.78740001 0.97567827 -0.26336721
-0.78740001 0.98853260 -0.25852516
0.70866001 0.89635265 0.51272833
0.70866001 0.85874677 0.19099918
0.70866001 0.86298543 0.06416926
0.70866001 0.85872400 0.06823069
0.70866001 0.91614687 0.35748923
0.70866001 0.89340550 0.33835965
0.70866001 0.91469228 0.05503583
0.70866001 0.96604300 0.16923997
0.70866001 0.95334095 0.13171378
0.70866001 0.97202772 0.33230656
0.70866001 0.93267095 0.11273936
0.70866001 0.97693914 0.27428007
-0.69315881 0.86055046 0.53594500
0.03121060 0.98340070 0.53594500
0.18902901 0.96801037 0.53594500
-0.47137183 0.91828024 0.53594500
-0.46626899 0.89075691 0.53594500
0.15382095 0.94450510 0.53594500
0.14671803 0.96681845 0.53594500
-0.23321289 0.98703545 0.53594500
0.52292490 0.99325949 0.53594500
0.01449430 0.98875141 0.53594500
-0.50670666 0.89538056 0.53594500
-0.13271919 0.92496419 0.53594500
-0.52497303 0.93849218 0.53594500
-0.30427337 0.97897738 0.53594500
-0.01503167 0.93677849 0.53594500
0.57712871 0.94950438 0.53594500
0.15153968 0.86971182 0.53594500
0.00135270 0.89125890 0.53594500
0.30699211 0.94296551 0.53594500
0.02221313 0.89461428 0.53594500
0.33176363 0.85911059 0.53594500
0.65599859 0.94234145 0.53594500
-0.03952554 0.87916791 0.53594500
0.61146140 0.89233387 0.53594500
0.50724763 0.91146761 0.53594500
0.44283175 0.96407068 0.53594500
0.46463081 0.93848300 0.53594500
-0.01500344 0.89712238 0.53594500
0.46990645 0.87300235 0.53594500
-0.46818459 0.87812275 0.53594500
0.23357624 0.87523615 0.53594500
-0.70865983 0.96255302 0.00476111
-0.70865983 0.86286229 0.25701094
-0.70865983 0.97921950 0.05549474
-0.70865983 0.85796458 0.28246805
-0.70865983 0.87604076 0.21106744
-0.70865983 0.89217490 0.24512108
-0.70865983 0.98613232 0.06012520
-0.70865983 0.94941193 0.33668077
-0.70865983 0.98067838 0.10495430
-0.70865983 0.88877952 0.40980917
-0.70865983 0.98962498 0.14135212
-0.70865983 0.96981448 0.35290116
-0.78740001 0.95812690 1.46192455
-0.78740001 0.88810438 1.23754072
-0.78740001 0.85972530 0.46463478
-0.78740001 0.87332404 1.11267090
-0.78740001 0.92337775 1.55863810
-0.78740001 0.85706258 1.52066457
-0.78740001 0.94631565 1.48999298
-0.78740001 0.88854015 0.71950907
-0.78740001 0.92284501 1.03984451
-0.78740001 0.92717320 1.46627867
-0.78740001 0.90387982 1.54663372
-0.78740001 0.88551408 1.07201362
-0.78740001 0.97965646 1.53468657
-0.78740001 0.89847720 1.32593107
-0.78740001 0.92032146 1.59439111
-0.78740001 0.95281470 1.58738840
-0.78740001 0.88773751 1.27026236
-0.78740001 0.99163908 1.33926904
-0.78740001 0.95818222 1.20280933
-0.78740001 0.96914053 1.22496331
-0.78740001 0.99087965 1.53567362
-0.78740001 0.94018960 0.77056742
-0.78740001 0.98202509 0.40527123
-0.78740001 0.92839998 0.80449778
-0.78740001 0.93688518 0.38694695
-0.78740001 0.95824277 0.19073680
-0.78740001 0.85970402 0.00788077
-0.78740001 0.98590428 0.00670048
-0.78740001 0.90692705 0.52303892
-0.78740001 0.93848801 0.20461924
-0.78740001 0.99294972 0.05940270
-0.78740001 0.97935671 1.36994648
-0.78740001 0.91576326 0.07673521
-0.78740001 0.98834074 1.54017520
-0.78740001 0.90063018 0.29617757
-0.78297788 0.89213091 1.65354502
-0.74102920 0.97447848 1.65354502
-0.38775551 0.92588836 1.65354502
-0.38624260 0.95265746 1.65354502
-0.40076283 0.96147871 1.65354502
-0.45870781 0.90005350 1.65354502
-0.63555408 0.91679525 1.65354502
-0.68607163 0.98083413 1.65354502
-0.40717342 0.96358228 1.65354502
-0.17643881 0.98271018 1.65354502
-0.57551229 0.98662621 1.65354502
-0.29284084 0.89485085 1.65354502
-0.15358067 0.96234828 1.65354502
-0.22173798 0.92767900 1.65354502
-0.34475535 0.92004800 1.65354502
0.07370144 0.98638064 1.65354502
-0.38872412 0.93585354 1.65354502
0.18326849 0.95730788 1.65354502
0.12862782 0.86825150 1.65354502
0.11409129 0.89789498 1.65354502
0.04870006 0.88066608 1.65354502
0.17044598 0.87419474 1.65354502
-0.17238392 0.86467600 1.65354502
0.58985233 0.85694331 1.65354502
0.61556041 0.90680254 1.65354502
0.74201870 0.98833942 1.65354502
-0.00057865 0.89458531 1.65354502
0.48415023 0.89310646 1.65354502
-0.43534690 0.85700530 1.65354502
0.62032723 0.97039098 1.65354502
0.07419793 0.88870728 1.65354502
0.23703080 0.88192248 1.65354502
-0.15701975 0.89233989 1.65354502
0.77990037 0.96749765 1.65354502
0.74532253 0.85629505 0.07618713
0.74961692 0.85629505 0.78651017
0.74629831 0.85629505 0.17673743
0.73753786 0.85629505 0.27596676
0.75112212 0.85629505 0.66330510
0.72575223 0.85629505 0.22258411
0.74641412 0.85629505 0.08129758
0.76741326 0.85629505 0.92793071
0.78568131 0.85629505 1.18360376
0.77057087 0.85629505 1.22508001
0.72732580 0.85629505 0.78701776
0.75822979 0.85629505 1.19700527
0.72342944 0.85629505 0.55785543
0.72722304 0.85629505 0.92086470
0.74465299 0.85629505 1.25471926
0.73194045 0.85629505 1.16783357
0.77726239 0.85629505 1.57901692
0.74816620 0.85629505 1.53508055
-0.75636190 0.95231944 -0.00000500
0.14360380 0.85629505 0.62392688
0.60425782 0.85629505 0.66456032
-0.45280242 0.85629505 0.54207581
0.64081246 0.85629505 0.64292246
0.29106733 0.85629505 0.57297599
0.01696652 0.85629505 0.56536347
0.70772099 0.85629505 0.66626209
0.51102310 0.85629505 0.63128227
-0.02298701 0.85629505 0.56650013
-0.34265435 0.85629505 0.56579846
0.16071725 0.85629505 0.54766983
-0.35520434 0.85629505 0.54477602
0.40386868 0.85629505 0.61715281
0.17858332 0.85629505 0.56523085
-0.05425876 0.85629505 0.60749531
0.49960011 0.85629505 0.57132888
0.37019765 0.85629505 0.54902315
0.53334206 0.85629505 0.64729834
-0.51304448 0.85629505 0.55617565
0.39781755 0.85629505 0.69604629
-0.65520239 0.85629505 0.68099403
-0.51931995 0.85629505 0.66084492
-0.63837630 0.85629505 0.63143718
0.01379758 0.85629505 0.65654200
-0.04507977 0.85629505 0.68231916
-0.28486547 0.85629505 0.61005616
0.24681097 0.85629505 0.67699265
-0.25810096 0.85629505 0.66949469
-0.37683630 0.85629505 0.60878503
-0.52777737 0.85629505 0.58589417
-0.32337096 0.85629505 0.66638058
-0.00659674 0.85629505 0.63002867
-0.29447246 0.85629505 0.66959232
-0.11412889 0.85629505 0.62195718
-0.09932250 0.85629505 0.69911098
-0.53877997 0.85629505 0.61126572
0.05700040 0.85629505 0.67086917
-0.33688670 0.85629505 0.69432402
-0.74731988 0.85629505 0.00192279
-0.72027260 0.85629505 0.31554765
-0.72251093 0.85629505 0.23139864
-0.74718010 0.85629505 0.62411618
-0.78592014 0.85629505 1.39432216
-0.78638798 0.85629505 0.84227377
-0.76025397 0.85629505 0.61910760
-0.73346579 0.85629505 0.38685223
-0.76348156 0.85629505 1.21359229
-0.78078526 0.85629505 0.61994183
-0.77591610 0.85629505 0.40005201
-0.78131676 0.85629505 1.03042400
-0.73303509 0.85629505 0.50937688
-0.74631613 0.85629505 0.41885236
-0.72806901 0.85629505 0.81430078
-0.71072191 0.85629505 0.93087834
-0.75131649 0.85629505 1.34362435
-0.74804503 0.85629505 1.34629428
-0.71353799 0.85629505 1.30769241
-0.73991728 0.85629505 1.52785349
-0.75912970 0.85629505 1.63335407
0.24646267 0.85629505 1.62347424
0.56728768 0.85629505 1.61754096
0.59178936 0.85629505 1.59540808
-0.08219689 0.85629505 1.59371138
-0.13060546 0.85629505 1.59410191
0.22815448 0.85629505 1.61503637
0.28534967 0.85629505 1.60284901
0.12052369 0.85629505 1.58127213
0.05766076 0.85629505 1.59726501
-0.16209924 0.85629505 1.57416034
-0.56991649 0.85629505 1.60175824
-0.34756806 0.85629505 1.62724781
