0.280748 -0.469624 -0.828225 
0.271693 -0.482280 -0.816356 
0.283638 -0.473601 -0.816356 
0.276291 -0.488607 -0.806164 
0.288235 -0.479929 -0.806164 
0.294226 -0.488174 -0.798343 
0.282281 -0.496852 -0.798343 
0.289258 -0.506455 -0.793427 
0.295289 -0.517816 -0.799832 
0.296744 -0.516760 -0.791750 
0.289033 -0.509205 -0.801233 
0.301547 -0.526429 -0.801233 
0.304231 -0.527064 -0.793427 
0.307378 -0.534454 -0.805342 
0.311208 -0.536667 -0.798343 
0.312385 -0.541346 -0.811879 
0.317199 -0.544912 -0.806164 
0.316227 -0.546633 -0.820397 
0.321796 -0.551238 -0.816356 
0.318642 -0.549958 -0.830317 
0.324686 -0.555218 -0.828225 
0.319465 -0.551093 -0.840962 
0.325671 -0.556572 -0.840962 
0.324686 -0.555218 -0.853700 
0.318642 -0.549958 -0.851608 
0.321796 -0.551238 -0.865569 
0.316227 -0.546633 -0.861528 
0.317199 -0.544912 -0.875761 
0.312385 -0.541346 -0.870046 
0.311208 -0.536667 -0.883582 
0.307378 -0.534454 -0.876582 
0.304231 -0.527064 -0.888498 
0.301547 -0.526429 -0.880691 
0.296744 -0.516760 -0.890175 
0.295289 -0.517816 -0.882093 
0.289033 -0.509205 -0.880691 
0.289258 -0.506455 -0.888498 
0.283202 -0.501179 -0.876582 
0.282281 -0.496852 -0.883582 
0.278195 -0.494287 -0.870046 
0.276291 -0.488607 -0.875761 
0.274353 -0.489000 -0.861528 
0.271693 -0.482280 -0.865569 
0.271937 -0.485675 -0.851608 
0.268804 -0.478302 -0.853700 
0.271114 -0.484542 -0.840962 
0.267819 -0.476945 -0.840962 
0.268804 -0.478302 -0.828225 
0.271937 -0.485675 -0.830317 
0.271693 -0.482280 -0.816356 
0.274353 -0.489000 -0.820397 
0.276291 -0.488607 -0.806164 
0.278195 -0.494287 -0.811879 
0.282281 -0.496852 -0.798343 
0.283202 -0.501179 -0.805342 
0.294096 -0.518683 -0.807980 
0.289079 -0.511778 -0.809103 
0.299113 -0.525590 -0.809103 
0.303789 -0.532026 -0.812399 
0.307804 -0.537552 -0.817640 
0.310886 -0.541793 -0.824471 
0.312822 -0.544458 -0.832426 
0.313483 -0.545367 -0.840962 
0.312822 -0.544458 -0.849499 
0.310886 -0.541793 -0.857454 
0.307804 -0.537552 -0.864285 
0.303789 -0.532026 -0.869526 
0.299113 -0.525590 -0.872821 
0.294096 -0.518683 -0.873945 
0.289079 -0.511778 -0.872821 
0.284402 -0.505342 -0.869526 
0.280387 -0.499816 -0.864285 
0.277307 -0.495575 -0.857454 
0.275370 -0.492909 -0.849499 
0.274710 -0.492000 -0.840962 
0.275370 -0.492909 -0.832426 
0.277307 -0.495575 -0.824471 
0.280387 -0.499816 -0.817640 
0.284402 -0.505342 -0.812399 
0.293166 -0.519360 -0.816179 
0.289396 -0.514171 -0.817024 
0.296936 -0.524549 -0.817024 
0.300449 -0.529385 -0.819500 
0.303466 -0.533537 -0.823438 
0.305781 -0.536723 -0.828571 
0.307237 -0.538726 -0.834548 
0.307733 -0.539410 -0.840962 
0.307237 -0.538726 -0.847377 
0.305781 -0.536723 -0.853354 
0.303466 -0.533537 -0.858486 
0.300449 -0.529385 -0.862425 
0.296936 -0.524549 -0.864901 
0.293166 -0.519360 -0.865745 
0.289396 -0.514171 -0.864901 
0.285883 -0.509335 -0.862425 
0.282865 -0.505183 -0.858486 
0.280551 -0.501996 -0.853354 
0.279095 -0.499993 -0.847377 
0.278599 -0.499310 -0.840962 
0.279095 -0.499993 -0.834548 
0.280551 -0.501996 -0.828571 
0.282865 -0.505183 -0.823438 
0.285883 -0.509335 -0.819500 
0.289984 -0.516379 -0.824982 
0.292500 -0.519843 -0.824419 
0.295017 -0.523308 -0.824982 
0.297363 -0.526536 -0.826635 
0.299376 -0.529308 -0.829264 
0.300922 -0.531434 -0.832691 
0.301893 -0.532772 -0.836681 
0.302224 -0.533228 -0.840962 
0.301893 -0.532772 -0.845244 
0.300922 -0.531434 -0.849234 
0.299376 -0.529308 -0.852661 
0.297363 -0.526536 -0.855290 
0.295017 -0.523308 -0.856942 
0.292500 -0.519843 -0.857506 
0.289984 -0.516379 -0.856942 
0.287638 -0.513151 -0.855290 
0.285624 -0.510379 -0.852661 
0.284079 -0.508252 -0.849234 
0.283107 -0.506915 -0.845244 
0.282776 -0.506459 -0.840962 
0.283107 -0.506915 -0.836681 
0.284079 -0.508252 -0.832691 
0.285624 -0.510379 -0.829264 
0.287638 -0.513151 -0.826635 
0.292101 -0.520133 -0.832684 
0.290841 -0.518400 -0.832966 
0.293360 -0.521867 -0.832966 
0.294533 -0.523483 -0.833793 
0.295541 -0.524870 -0.835108 
0.296315 -0.525934 -0.836823 
0.296800 -0.526603 -0.838820 
0.296967 -0.526831 -0.840962 
0.296800 -0.526603 -0.843105 
0.296315 -0.525934 -0.845102 
0.295541 -0.524870 -0.846816 
0.294533 -0.523483 -0.848132 
0.293360 -0.521867 -0.848959 
0.292101 -0.520133 -0.849241 
0.290841 -0.518400 -0.848959 
0.289668 -0.516785 -0.848132 
0.288660 -0.515398 -0.846816 
0.287887 -0.514333 -0.845102 
0.287401 -0.513664 -0.843105 
0.287235 -0.513436 -0.840962 
0.287401 -0.513664 -0.838820 
0.287887 -0.514333 -0.836823 
0.288660 -0.515398 -0.835108 
0.289668 -0.516785 -0.833793 
0.291967 -0.520230 -0.840962 
0.311614 -0.445127 -0.840962 
0.312599 -0.446483 -0.853700 
0.312599 -0.446483 -0.828225 
0.315489 -0.450460 -0.816356 
0.315489 -0.450460 -0.865569 
0.320086 -0.456787 -0.806164 
0.320086 -0.456787 -0.875761 
0.326077 -0.465034 -0.798343 
0.326077 -0.465034 -0.883582 
0.333053 -0.474636 -0.793427 
0.333053 -0.474636 -0.888498 
0.340540 -0.484940 -0.791750 
0.340540 -0.484940 -0.890175 
0.348026 -0.495245 -0.793427 
0.348026 -0.495245 -0.888498 
0.355003 -0.504847 -0.798343 
0.355003 -0.504847 -0.883582 
0.360994 -0.513093 -0.806164 
0.360994 -0.513093 -0.875761 
0.365591 -0.519420 -0.816356 
0.365591 -0.519420 -0.865569 
0.368481 -0.523398 -0.828225 
0.368481 -0.523398 -0.853700 
0.369467 -0.524754 -0.840962 
0.333053 -0.474636 -0.793427 
0.340540 -0.484940 -0.791750 
0.344997 -0.465958 -0.793427 
0.352484 -0.476263 -0.791750 
0.348026 -0.495245 -0.793427 
0.359971 -0.486567 -0.793427 
0.355003 -0.504847 -0.798343 
0.366948 -0.496170 -0.798343 
0.360994 -0.513093 -0.806164 
0.372938 -0.504415 -0.806164 
0.377535 -0.510742 -0.816356 
0.365591 -0.519420 -0.816356 
0.380425 -0.514719 -0.828225 
0.368481 -0.523398 -0.828225 
0.381411 -0.516076 -0.840962 
0.369467 -0.524754 -0.840962 
0.380425 -0.514719 -0.853700 
0.368481 -0.523398 -0.853700 
0.377535 -0.510742 -0.865569 
0.365591 -0.519420 -0.865569 
0.372938 -0.504415 -0.875761 
0.360994 -0.513093 -0.875761 
0.355003 -0.504847 -0.883582 
0.366948 -0.496170 -0.883582 
0.348026 -0.495245 -0.888498 
0.359971 -0.486567 -0.888498 
0.340540 -0.484940 -0.890175 
0.352484 -0.476263 -0.890175 
0.333053 -0.474636 -0.888498 
0.344997 -0.465958 -0.888498 
0.326077 -0.465034 -0.883582 
0.338021 -0.456355 -0.883582 
0.320086 -0.456787 -0.875761 
0.332030 -0.448109 -0.875761 
0.315489 -0.450460 -0.865569 
0.327433 -0.441783 -0.865569 
0.312599 -0.446483 -0.853700 
0.324544 -0.437805 -0.853700 
0.311614 -0.445127 -0.840962 
0.323557 -0.436448 -0.840962 
0.312599 -0.446483 -0.828225 
0.324544 -0.437805 -0.828225 
0.315489 -0.450460 -0.816356 
0.327433 -0.441783 -0.816356 
0.320086 -0.456787 -0.806164 
0.332030 -0.448109 -0.806164 
0.326077 -0.465034 -0.798343 
0.338021 -0.456355 -0.798343 
0.347682 -0.466593 -0.801233 
0.344997 -0.465958 -0.793427 
0.353939 -0.475205 -0.799832 
0.352484 -0.476263 -0.791750 
0.360196 -0.483817 -0.801233 
0.359971 -0.486567 -0.793427 
0.366027 -0.491843 -0.805342 
0.366948 -0.496170 -0.798343 
0.371034 -0.498734 -0.811879 
0.372938 -0.504415 -0.806164 
0.374876 -0.504023 -0.820397 
0.377535 -0.510742 -0.816356 
0.377291 -0.507347 -0.830317 
0.380425 -0.514719 -0.828225 
0.378115 -0.508480 -0.840962 
0.381411 -0.516076 -0.840962 
0.377291 -0.507347 -0.851608 
0.380425 -0.514719 -0.853700 
0.374876 -0.504023 -0.861528 
0.377535 -0.510742 -0.865569 
0.371034 -0.498734 -0.870046 
0.372938 -0.504415 -0.875761 
0.366027 -0.491843 -0.876582 
0.366948 -0.496170 -0.883582 
0.360196 -0.483817 -0.880691 
0.359971 -0.486567 -0.888498 
0.353939 -0.475205 -0.882093 
0.352484 -0.476263 -0.890175 
0.344997 -0.465958 -0.888498 
0.347682 -0.466593 -0.880691 
0.338021 -0.456355 -0.883582 
0.341851 -0.458567 -0.876582 
0.332030 -0.448109 -0.875761 
0.336845 -0.451676 -0.870046 
0.327433 -0.441783 -0.865569 
0.333003 -0.446388 -0.861528 
0.324544 -0.437805 -0.853700 
0.330587 -0.443064 -0.851608 
0.323557 -0.436448 -0.840962 
0.329764 -0.441930 -0.840962 
0.324544 -0.437805 -0.828225 
0.330587 -0.443064 -0.830317 
0.327433 -0.441783 -0.816356 
0.333003 -0.446388 -0.820397 
0.332030 -0.448109 -0.806164 
0.336845 -0.451676 -0.811879 
0.338021 -0.456355 -0.798343 
0.341851 -0.458567 -0.805342 
0.350115 -0.467432 -0.809103 
0.355133 -0.474338 -0.807980 
0.360151 -0.481244 -0.809103 
0.364826 -0.487680 -0.812399 
0.368841 -0.493206 -0.817640 
0.371922 -0.497447 -0.824471 
0.373859 -0.500112 -0.832426 
0.374519 -0.501022 -0.840962 
0.373859 -0.500112 -0.849499 
0.371922 -0.497447 -0.857454 
0.368841 -0.493206 -0.864285 
0.364826 -0.487680 -0.869526 
0.360151 -0.481244 -0.872821 
0.355133 -0.474338 -0.873945 
0.350115 -0.467432 -0.872821 
0.345440 -0.460996 -0.869526 
0.341424 -0.455470 -0.864285 
0.338344 -0.451229 -0.857454 
0.336406 -0.448563 -0.849499 
0.335746 -0.447654 -0.840962 
0.336406 -0.448563 -0.832426 
0.338344 -0.451229 -0.824471 
0.341424 -0.455470 -0.817640 
0.345440 -0.460996 -0.812399 
0.352293 -0.468473 -0.817024 
0.356063 -0.473662 -0.816179 
0.359834 -0.478852 -0.817024 
0.363347 -0.483687 -0.819500 
0.366363 -0.487840 -0.823438 
0.368679 -0.491026 -0.828571 
0.370133 -0.493028 -0.834548 
0.370630 -0.493712 -0.840962 
0.370133 -0.493028 -0.847377 
0.368679 -0.491026 -0.853354 
0.366363 -0.487840 -0.858486 
0.363347 -0.483687 -0.862425 
0.359834 -0.478852 -0.864901 
0.356063 -0.473662 -0.865745 
0.352293 -0.468473 -0.864901 
0.348780 -0.463637 -0.862425 
0.345762 -0.459485 -0.858486 
0.343448 -0.456299 -0.853354 
0.341992 -0.454295 -0.847377 
0.341496 -0.453613 -0.840962 
0.341992 -0.454295 -0.834548 
0.343448 -0.456299 -0.828571 
0.345762 -0.459485 -0.823438 
0.348780 -0.463637 -0.819500 
0.354212 -0.469714 -0.824982 
0.356729 -0.473178 -0.824419 
0.359246 -0.476643 -0.824982 
0.361591 -0.479871 -0.826635 
0.363605 -0.482643 -0.829264 
0.365150 -0.484769 -0.832691 
0.366122 -0.486106 -0.836681 
0.366453 -0.486562 -0.840962 
0.366122 -0.486106 -0.845244 
0.365150 -0.484769 -0.849234 
0.363605 -0.482643 -0.852661 
0.361591 -0.479871 -0.855290 
0.359246 -0.476643 -0.856942 
0.356729 -0.473178 -0.857506 
0.354212 -0.469714 -0.856942 
0.351867 -0.466487 -0.855290 
0.349853 -0.463715 -0.852661 
0.348307 -0.461587 -0.849234 
0.347336 -0.460251 -0.845244 
0.347005 -0.459795 -0.840962 
0.347336 -0.460251 -0.836681 
0.348307 -0.461587 -0.832691 
0.349853 -0.463715 -0.829264 
0.351867 -0.466487 -0.826635 
0.355869 -0.471155 -0.832966 
0.357129 -0.472888 -0.832684 
0.358388 -0.474622 -0.832966 
0.359562 -0.476237 -0.833793 
0.360569 -0.477624 -0.835108 
0.361343 -0.478688 -0.836823 
0.361829 -0.479357 -0.838820 
0.361995 -0.479585 -0.840962 
0.361829 -0.479357 -0.843105 
0.361343 -0.478688 -0.845102 
0.360569 -0.477624 -0.846816 
0.359562 -0.476237 -0.848132 
0.358388 -0.474622 -0.848959 
0.357129 -0.472888 -0.849241 
0.355869 -0.471155 -0.848959 
0.354696 -0.469539 -0.848132 
0.353687 -0.468153 -0.846816 
0.352915 -0.467088 -0.845102 
0.352429 -0.466419 -0.843105 
0.352262 -0.466190 -0.840962 
0.352429 -0.466419 -0.838820 
0.352915 -0.467088 -0.836823 
0.353687 -0.468153 -0.835108 
0.354696 -0.469539 -0.833793 
0.357262 -0.472791 -0.840962 
0.081397 0.008138 -0.712694 
0.070727 0.002702 -0.715133 
0.069411 0.004243 -0.712694 
0.081976 0.006357 -0.715133 
0.024168 -0.006834 -0.704375 
0.025233 -0.010111 -0.712694 
0.080333 0.011415 -0.704375 
0.081397 0.008138 -0.712694 
0.083893 0.000458 -0.715133 
0.081976 0.006357 -0.715133 
0.082726 0.004049 -0.710212 
0.080333 0.011415 -0.704375 
0.081814 0.006855 -0.703090 
0.079970 0.012532 -0.695448 
0.081504 0.007812 -0.695448 
0.080333 0.011415 -0.686521 
0.081814 0.006855 -0.687806 
0.082726 0.004049 -0.680684 
0.081397 0.008138 -0.678202 
0.084176 -0.000414 -0.674569 
0.083091 0.002925 -0.671059 
0.086066 -0.006230 -0.669876 
0.085299 -0.003869 -0.665578 
0.088266 -0.013002 -0.666927 
0.090628 -0.020271 -0.665920 
0.098530 -0.044591 -0.710212 
0.099280 -0.046899 -0.715133 
0.097363 -0.040999 -0.715133 
0.099859 -0.048679 -0.712694 
0.100923 -0.051956 -0.704375 
0.099441 -0.047396 -0.703090 
0.101286 -0.053074 -0.695448 
0.099753 -0.048353 -0.695448 
0.100923 -0.051956 -0.686521 
0.099441 -0.047396 -0.687806 
0.098530 -0.044591 -0.680684 
0.099859 -0.048679 -0.678202 
0.097080 -0.040128 -0.674569 
0.098164 -0.043466 -0.671059 
0.095190 -0.034312 -0.669876 
0.095957 -0.036672 -0.665578 
0.092989 -0.027539 -0.666927 
0.087870 -0.011781 -0.662132 
0.093387 -0.028761 -0.662132 
0.090628 -0.020271 -0.660957 
0.081976 0.006357 -0.715133 
0.074533 -0.002583 -0.715133 
0.070727 0.002702 -0.715133 
0.083893 0.000458 -0.715133 
0.079970 0.012532 -0.695448 
0.023805 -0.005717 -0.695448 
0.024168 -0.006834 -0.686521 
0.080333 0.011415 -0.686521 
0.081397 0.008138 -0.678202 
0.025233 -0.010111 -0.678202 
0.026927 -0.015324 -0.671059 
0.083091 0.002925 -0.671059 
0.085299 -0.003869 -0.665578 
0.029134 -0.022118 -0.665578 
0.087870 -0.011781 -0.662132 
0.031705 -0.030030 -0.662132 
0.034463 -0.038520 -0.660957 
0.090628 -0.020271 -0.660957 
0.093387 -0.028761 -0.662132 
0.037222 -0.047010 -0.662132 
0.039792 -0.054921 -0.665578 
0.095957 -0.036672 -0.665578 
0.042000 -0.061715 -0.671059 
0.098164 -0.043466 -0.671059 
0.043694 -0.066928 -0.678202 
0.099859 -0.048679 -0.678202 
0.100923 -0.051956 -0.686521 
0.044758 -0.070205 -0.686521 
0.045122 -0.071323 -0.695448 
0.101286 -0.053074 -0.695448 
0.100923 -0.051956 -0.704375 
0.044758 -0.070205 -0.704375 
0.043694 -0.066928 -0.712694 
0.087871 -0.052574 -0.712694 
0.088222 -0.052460 -0.712694 
0.099859 -0.048679 -0.712694 
0.088493 -0.050404 -0.715133 
0.099280 -0.046899 -0.715133 
0.097363 -0.040999 -0.715133 
0.088493 -0.050404 -0.715133 
0.087842 -0.044093 -0.715133 
0.099280 -0.046899 -0.715133 
0.034463 -0.038520 -0.660957 
0.031705 -0.030030 -0.662132 
0.029134 -0.022118 -0.665578 
0.026927 -0.015324 -0.671059 
0.025233 -0.010111 -0.678202 
0.024168 -0.006834 -0.686521 
0.023805 -0.005717 -0.695448 
0.024168 -0.006834 -0.704375 
0.025233 -0.010111 -0.712694 
0.026927 -0.015324 -0.719837 
0.029134 -0.022118 -0.725318 
0.031705 -0.030030 -0.728764 
0.034463 -0.038520 -0.729939 
0.037222 -0.047010 -0.728764 
0.039792 -0.054921 -0.725318 
0.042000 -0.061715 -0.719837 
0.043694 -0.066928 -0.712694 
0.044758 -0.070205 -0.704375 
0.045122 -0.071323 -0.695448 
0.044758 -0.070205 -0.686521 
0.043694 -0.066928 -0.678202 
0.042000 -0.061715 -0.671059 
0.039792 -0.054921 -0.665578 
0.037222 -0.047010 -0.662132 
0.087871 -0.052574 -0.712694 
0.088031 -0.050554 -0.715133 
0.499914 0.112715 -0.732045 
0.528920 0.114102 -0.770205 
0.527760 0.121763 -0.770205 
0.501595 0.105225 -0.732763 
0.501795 0.097801 -0.734866 
0.527580 0.106181 -0.770205 
0.492713 0.140364 -0.770205 
0.474390 0.134411 -0.770205 
0.483241 0.138344 -0.770205 
0.502160 0.140332 -0.770205 
0.466765 0.128831 -0.770205 
0.460884 0.121987 -0.770205 
0.510940 0.138251 -0.770205 
0.458417 0.116939 -0.770205 
0.518455 0.134263 -0.770205 
0.456568 0.114154 -0.770205 
0.524195 0.128639 -0.770205 
0.454161 0.105884 -0.770205 
0.454951 0.098105 -0.770205 
0.527760 0.121763 -0.770205 
0.528920 0.114102 -0.770205 
0.458884 0.091348 -0.770205 
0.465693 0.086072 -0.770205 
0.527580 0.106181 -0.770205 
0.468825 0.084905 -0.770205 
0.523845 0.098537 -0.770205 
0.473788 0.082272 -0.770205 
0.482569 0.080191 -0.770205 
0.517965 0.091692 -0.770205 
0.492017 0.080160 -0.770205 
0.510340 0.086113 -0.770205 
0.501490 0.082179 -0.770205 
0.496870 0.119761 -0.732763 
0.524195 0.128639 -0.770205 
0.455274 0.098210 -0.696029 
0.457153 0.090785 -0.696908 
0.523845 0.098537 -0.770205 
0.500500 0.090951 -0.738213 
0.457938 0.083553 -0.699484 
0.517965 0.091692 -0.770205 
0.497802 0.085141 -0.742575 
0.510340 0.086113 -0.770205 
0.493883 0.080766 -0.747653 
0.501490 0.082179 -0.770205 
0.489010 0.078125 -0.753104 
0.492017 0.080160 -0.770205 
0.483515 0.077397 -0.758555 
0.482569 0.080191 -0.770205 
0.477773 0.078632 -0.763633 
0.473788 0.082272 -0.770205 
0.472175 0.081748 -0.767995 
0.468825 0.084905 -0.770205 
0.433409 0.075582 -0.744157 
0.465693 0.086072 -0.770205 
0.437549 0.070497 -0.740059 
0.458884 0.091348 -0.770205 
0.429794 0.081895 -0.746734 
0.454951 0.098105 -0.770205 
0.426949 0.089007 -0.747613 
0.425070 0.096432 -0.746734 
0.454161 0.105884 -0.770205 
0.456568 0.114154 -0.770205 
0.424285 0.103665 -0.744157 
0.458417 0.116939 -0.770205 
0.424645 0.110212 -0.740059 
0.459271 0.121463 -0.767995 
0.460884 0.121987 -0.770205 
0.461969 0.127273 -0.763633 
0.466765 0.128831 -0.770205 
0.465888 0.131648 -0.758555 
0.474390 0.134411 -0.770205 
0.470760 0.134289 -0.753104 
0.483241 0.138344 -0.770205 
0.476256 0.135017 -0.747653 
0.492713 0.140364 -0.770205 
0.481997 0.133781 -0.742575 
0.502160 0.140332 -0.770205 
0.487596 0.130666 -0.738213 
0.510940 0.138251 -0.770205 
0.518455 0.134263 -0.770205 
0.492668 0.125884 -0.734866 
0.452430 0.105322 -0.696908 
0.405402 0.073970 -0.674368 
0.403290 0.081319 -0.673388 
0.457578 0.077005 -0.703583 
0.406870 0.066959 -0.677242 
0.456095 0.071589 -0.708924 
0.453590 0.067674 -0.715146 
0.450236 0.065526 -0.721821 
0.446259 0.065292 -0.728496 
0.441932 0.066988 -0.734717 
0.394172 0.062833 -0.727069 
0.397227 0.057395 -0.722497 
0.391239 0.069368 -0.729943 
0.388627 0.076556 -0.730923 
0.386516 0.083904 -0.729943 
0.385048 0.090916 -0.727069 
0.384323 0.097110 -0.722497 
0.426128 0.115628 -0.734717 
0.428632 0.119543 -0.728496 
0.431987 0.121691 -0.721821 
0.435963 0.121925 -0.715146 
0.440291 0.120229 -0.708924 
0.444674 0.116719 -0.703583 
0.448814 0.111635 -0.699484 
0.400678 0.088507 -0.674368 
0.349344 0.063792 -0.665920 
0.351643 0.056502 -0.666927 
0.407595 0.060764 -0.681813 
0.353660 0.049670 -0.669876 
0.407526 0.055808 -0.687771 
0.406670 0.052429 -0.694710 
0.405083 0.050855 -0.702156 
0.402875 0.051196 -0.709601 
0.400195 0.053426 -0.716539 
0.350472 0.048634 -0.721020 
0.352654 0.042913 -0.716327 
0.348088 0.055348 -0.723970 
0.345663 0.062595 -0.724976 
0.343364 0.069884 -0.723970 
0.341348 0.076717 -0.721020 
0.339750 0.082627 -0.716327 
0.384391 0.102067 -0.716539 
0.385247 0.105446 -0.709601 
0.386834 0.107019 -0.702156 
0.389042 0.106679 -0.694710 
0.391722 0.104448 -0.687771 
0.394690 0.100479 -0.681813 
0.397745 0.095042 -0.677242 
0.346920 0.071039 -0.666927 
0.044820 -0.035155 -0.665920 
0.046225 -0.042734 -0.666927 
0.355257 0.043759 -0.674569 
0.047062 -0.047251 -0.668813 
0.046844 -0.050020 -0.669876 
0.356326 0.039172 -0.680684 
0.356793 0.036222 -0.687806 
0.356628 0.035111 -0.695448 
0.355841 0.035913 -0.703090 
0.354486 0.038574 -0.710212 
0.046844 -0.050020 -0.721020 
0.046325 -0.056619 -0.716327 
0.046225 -0.042734 -0.723970 
0.047062 -0.047251 -0.722083 
0.044820 -0.035155 -0.724976 
0.041502 -0.028197 -0.723970 
0.037720 -0.021938 -0.721020 
0.039524 -0.024050 -0.722083 
0.033421 -0.016905 -0.716327 
0.338681 0.087214 -0.710212 
0.338214 0.090164 -0.703090 
0.338379 0.091276 -0.695448 
0.339166 0.090474 -0.687806 
0.340522 0.087813 -0.680684 
0.342353 0.083473 -0.674569 
0.344535 0.077753 -0.669876 
0.041502 -0.028197 -0.666927 
0.046325 -0.056619 -0.674569 
0.046097 -0.059516 -0.678067 
0.045252 -0.061902 -0.680684 
0.044011 -0.065407 -0.687806 
0.043588 -0.066602 -0.695448 
0.044011 -0.065407 -0.703090 
0.045252 -0.061902 -0.710212 
0.046097 -0.059516 -0.712829 
0.031534 -0.014695 -0.712829 
0.029448 -0.013262 -0.710212 
0.026384 -0.011156 -0.703090 
0.025339 -0.010437 -0.695448 
0.026384 -0.011156 -0.687806 
0.029448 -0.013262 -0.680684 
0.031534 -0.014695 -0.678067 
0.033421 -0.016905 -0.674569 
0.037720 -0.021938 -0.669876 
0.039524 -0.024050 -0.668813 
0.492880 0.100433 -0.780048 
0.497725 0.102007 -0.780048 
0.495406 0.100901 -0.780048 
0.490319 0.100634 -0.780048 
0.499680 0.103675 -0.780048 
0.487897 0.101492 -0.780048 
0.501135 0.105793 -0.780048 
0.485779 0.102947 -0.780048 
0.501990 0.108215 -0.780048 
0.484111 0.104901 -0.780048 
0.502195 0.110776 -0.780048 
0.483004 0.107220 -0.780048 
0.501725 0.113303 -0.780048 
0.482536 0.109747 -0.780048 
0.500620 0.115622 -0.780048 
0.482738 0.112308 -0.780048 
0.498951 0.117576 -0.780048 
0.483595 0.114730 -0.780048 
0.496834 0.119032 -0.780048 
0.485050 0.116848 -0.780048 
0.494412 0.119889 -0.780048 
0.487005 0.118516 -0.780048 
0.491850 0.120090 -0.780048 
0.489324 0.119623 -0.780048 
0.491850 0.120090 -0.780048 
0.494412 0.119889 -0.770205 
0.494412 0.119889 -0.780048 
0.491850 0.120090 -0.770205 
0.496834 0.119032 -0.770205 
0.496834 0.119032 -0.780048 
0.498951 0.117576 -0.780048 
0.498951 0.117576 -0.770205 
0.500620 0.115622 -0.780048 
0.500620 0.115622 -0.770205 
0.501725 0.113303 -0.780048 
0.501725 0.113303 -0.770205 
0.502195 0.110776 -0.780048 
0.502195 0.110776 -0.770205 
0.501990 0.108215 -0.780048 
0.501990 0.108215 -0.770205 
0.501135 0.105793 -0.780048 
0.501135 0.105793 -0.770205 
0.499680 0.103675 -0.770205 
0.499680 0.103675 -0.780048 
0.497725 0.102007 -0.770205 
0.497725 0.102007 -0.780048 
0.495406 0.100901 -0.770205 
0.495406 0.100901 -0.780048 
0.492880 0.100433 -0.770205 
0.492880 0.100433 -0.780048 
0.490319 0.100634 -0.770205 
0.490319 0.100634 -0.780048 
0.487897 0.101492 -0.770205 
0.487897 0.101492 -0.780048 
0.485779 0.102947 -0.780048 
0.485779 0.102947 -0.770205 
0.484111 0.104901 -0.780048 
0.484111 0.104901 -0.770205 
0.483004 0.107220 -0.780048 
0.483004 0.107220 -0.770205 
0.482536 0.109747 -0.780048 
0.482536 0.109747 -0.770205 
0.482738 0.112308 -0.780048 
0.482738 0.112308 -0.770205 
0.483595 0.114730 -0.780048 
0.483595 0.114730 -0.770205 
0.485050 0.116848 -0.770205 
0.485050 0.116848 -0.780048 
0.487005 0.118516 -0.770205 
0.487005 0.118516 -0.780048 
0.489324 0.119623 -0.770205 
0.489324 0.119623 -0.780048 
0.497725 0.102007 -0.770205 
0.492880 0.100433 -0.770205 
0.495406 0.100901 -0.770205 
0.499680 0.103675 -0.770205 
0.490319 0.100634 -0.770205 
0.487897 0.101492 -0.770205 
0.501135 0.105793 -0.770205 
0.485779 0.102947 -0.770205 
0.501990 0.108215 -0.770205 
0.484111 0.104901 -0.770205 
0.502195 0.110776 -0.770205 
0.483004 0.107220 -0.770205 
0.501725 0.113303 -0.770205 
0.482536 0.109747 -0.770205 
0.500620 0.115622 -0.770205 
0.482738 0.112308 -0.770205 
0.498951 0.117576 -0.770205 
0.483595 0.114730 -0.770205 
0.496834 0.119032 -0.770205 
0.485050 0.116848 -0.770205 
0.494412 0.119889 -0.770205 
0.487005 0.118516 -0.770205 
0.491850 0.120090 -0.770205 
0.489324 0.119623 -0.770205 
0.541055 0.115733 -0.790825 
0.534970 0.134455 -0.790825 
0.522195 0.130303 -0.789056 
0.528280 0.111582 -0.789056 
0.500240 0.122748 -0.794876 
0.499706 0.122995 -0.795056 
0.515500 0.107430 -0.790825 
0.509420 0.126152 -0.790825 
0.503595 0.103561 -0.796010 
0.497513 0.122283 -0.796010 
0.493372 0.100240 -0.804259 
0.487289 0.118962 -0.804259 
0.485527 0.097691 -0.815010 
0.479444 0.116412 -0.815010 
0.564945 0.144194 -0.815010 
0.571030 0.125473 -0.815010 
0.480595 0.096088 -0.827528 
0.474512 0.114810 -0.827528 
0.552960 0.119602 -0.796010 
0.546880 0.138323 -0.796010 
0.557100 0.141645 -0.804259 
0.563185 0.122924 -0.804259 
0.478913 0.095542 -0.840962 
0.472830 0.114263 -0.840962 
0.569880 0.145797 -0.827528 
0.575960 0.127075 -0.827528 
0.479300 0.103386 -0.824879 
0.479300 0.103386 -0.825058 
0.487726 0.082882 -0.815075 
0.467684 0.128115 -0.828234 
0.482891 0.081311 -0.828234 
0.472519 0.129686 -0.815075 
0.582150 0.113563 -0.825725 
0.584090 0.114192 -0.840962 
0.584220 0.114235 -0.839664 
0.582335 0.113621 -0.839711 
0.580340 0.112974 -0.826285 
0.576720 0.111798 -0.812825 
0.575110 0.111274 -0.813859 
0.568300 0.109062 -0.801843 
0.566995 0.108638 -0.803280 
0.557460 0.105540 -0.793526 
0.556555 0.105246 -0.795268 
0.544945 0.101474 -0.788442 
0.544500 0.101329 -0.790372 
0.531605 0.097139 -0.786938 
0.531650 0.097154 -0.788922 
0.518880 0.093005 -0.791019 
0.518350 0.092832 -0.789115 
0.507065 0.089165 -0.796520 
0.506080 0.088845 -0.794825 
0.497003 0.085896 -0.805049 
0.495636 0.085452 -0.803679 
0.489384 0.083421 -0.816026 
0.487726 0.082882 -0.815075 
0.484726 0.081907 -0.828702 
0.482891 0.081311 -0.828234 
0.483476 0.081501 -0.840962 
0.481593 0.080889 -0.840962 
0.582205 0.113581 -0.840962 
0.495636 0.085452 -0.803679 
0.480428 0.132255 -0.803679 
0.567000 0.160384 -0.840962 
0.567125 0.160425 -0.839711 
0.568880 0.160996 -0.840962 
0.566945 0.160367 -0.825725 
0.569015 0.161039 -0.839664 
0.565130 0.159778 -0.826285 
0.561515 0.158602 -0.812825 
0.559900 0.158078 -0.813859 
0.553090 0.155866 -0.801843 
0.551790 0.155442 -0.803280 
0.542255 0.152344 -0.793526 
0.541350 0.152050 -0.795268 
0.529740 0.148278 -0.788442 
0.529295 0.148133 -0.790372 
0.516400 0.143943 -0.786938 
0.516445 0.143957 -0.788922 
0.503675 0.139809 -0.791019 
0.503140 0.139636 -0.789115 
0.491856 0.135969 -0.796520 
0.490873 0.135650 -0.794825 
0.481795 0.132700 -0.805049 
0.480428 0.132255 -0.803679 
0.474176 0.130224 -0.816026 
0.472519 0.129686 -0.815075 
0.469519 0.128711 -0.828702 
0.467684 0.128115 -0.828234 
0.468268 0.128305 -0.840962 
0.466385 0.127693 -0.840962 
0.477030 0.094930 -0.840962 
0.481593 0.080889 -0.840962 
0.466385 0.127693 -0.840962 
0.470947 0.113652 -0.840962 
0.477030 0.094930 -0.840962 
0.483476 0.081501 -0.840962 
0.481593 0.080889 -0.840962 
0.478913 0.095542 -0.840962 
0.470947 0.113652 -0.840962 
0.472830 0.114263 -0.840962 
0.466385 0.127693 -0.840962 
0.468268 0.128305 -0.840962 
0.469519 0.128711 -0.828702 
0.472830 0.114263 -0.840962 
0.468268 0.128305 -0.840962 
0.478913 0.095542 -0.840962 
0.484726 0.081907 -0.828702 
0.483476 0.081501 -0.840962 
0.474176 0.130224 -0.816026 
0.489384 0.083421 -0.816026 
0.481795 0.132700 -0.805049 
0.497003 0.085896 -0.805049 
0.507065 0.089165 -0.796520 
0.491856 0.135969 -0.796520 
0.518880 0.093005 -0.791019 
0.503675 0.139809 -0.791019 
0.531650 0.097154 -0.788922 
0.516445 0.143957 -0.788922 
0.544500 0.101329 -0.790372 
0.529295 0.148133 -0.790372 
0.556555 0.105246 -0.795268 
0.541350 0.152050 -0.795268 
0.566995 0.108638 -0.803280 
0.551790 0.155442 -0.803280 
0.559900 0.158078 -0.813859 
0.575110 0.111274 -0.813859 
0.565130 0.159778 -0.826285 
0.580340 0.112974 -0.826285 
0.567125 0.160425 -0.839711 
0.582335 0.113621 -0.839711 
0.577645 0.127622 -0.840962 
0.584090 0.114192 -0.840962 
0.582205 0.113581 -0.840962 
0.579525 0.128233 -0.840962 
0.478913 0.095542 -0.840962 
0.573445 0.146955 -0.840962 
0.472830 0.114263 -0.840962 
0.571560 0.146343 -0.840962 
0.567000 0.160384 -0.840962 
0.568880 0.160996 -0.840962 
0.569015 0.161039 -0.839664 
0.573445 0.146955 -0.840962 
0.568880 0.160996 -0.840962 
0.579525 0.128233 -0.840962 
0.584220 0.114235 -0.839664 
0.584090 0.114192 -0.840962 
0.566945 0.160367 -0.825725 
0.582150 0.113563 -0.825725 
0.561515 0.158602 -0.812825 
0.576720 0.111798 -0.812825 
0.553090 0.155866 -0.801843 
0.568300 0.109062 -0.801843 
0.557460 0.105540 -0.793526 
0.542255 0.152344 -0.793526 
0.544945 0.101474 -0.788442 
0.529740 0.148278 -0.788442 
0.531605 0.097139 -0.786938 
0.516400 0.143943 -0.786938 
0.518350 0.092832 -0.789115 
0.503140 0.139636 -0.789115 
0.506080 0.088845 -0.794825 
0.490873 0.135650 -0.794825 
0.478913 0.095542 -0.840962 
0.474512 0.114810 -0.827528 
0.472830 0.114263 -0.840962 
0.480595 0.096088 -0.827528 
0.575960 0.127075 -0.827528 
0.478913 0.095542 -0.840962 
0.577645 0.127622 -0.840962 
0.571030 0.125473 -0.815010 
0.563185 0.122924 -0.804259 
0.552960 0.119602 -0.796010 
0.541055 0.115733 -0.790825 
0.528280 0.111582 -0.789056 
0.515500 0.107430 -0.790825 
0.503595 0.103561 -0.796010 
0.493372 0.100240 -0.804259 
0.485527 0.097691 -0.815010 
0.480595 0.096088 -0.827528 
0.472830 0.114263 -0.840962 
0.569880 0.145797 -0.827528 
0.571560 0.146343 -0.840962 
0.564945 0.144194 -0.815010 
0.557100 0.141645 -0.804259 
0.546880 0.138323 -0.796010 
0.534970 0.134455 -0.790825 
0.522195 0.130303 -0.789056 
0.509420 0.126152 -0.790825 
0.497513 0.122283 -0.796010 
0.487289 0.118962 -0.804259 
0.479444 0.116412 -0.815010 
0.474512 0.114810 -0.827528 
0.485527 0.097691 -0.815010 
0.479444 0.116412 -0.815010 
0.564945 0.144194 -0.815010 
0.575960 0.127075 -0.827528 
0.569880 0.145797 -0.827528 
0.571030 0.125473 -0.815010 
0.557100 0.141645 -0.804259 
0.563185 0.122924 -0.804259 
0.552960 0.119602 -0.796010 
0.546880 0.138323 -0.796010 
0.541055 0.115733 -0.790825 
0.534970 0.134455 -0.790825 
0.528280 0.111582 -0.789056 
0.522195 0.130303 -0.789056 
0.515500 0.107430 -0.790825 
0.509420 0.126152 -0.790825 
0.503595 0.103561 -0.796010 
0.497513 0.122283 -0.796010 
0.493372 0.100240 -0.804259 
0.487289 0.118962 -0.804259 
0.504850 0.102385 -0.793490 
0.503355 0.100583 -0.796520 
0.504850 0.102385 -0.795643 
0.502570 0.099643 -0.794825 
0.502385 0.099421 -0.797550 
0.502385 0.099421 -0.795022 
0.499240 0.097197 -0.797990 
0.499240 0.097197 -0.800518 
0.506465 0.105885 -0.794485 
0.506465 0.105885 -0.792332 
0.502385 0.099421 -0.784969 
0.504850 0.102385 -0.793490 
0.504850 0.102385 -0.784969 
0.502570 0.099643 -0.794825 
0.502385 0.099421 -0.795022 
0.495625 0.095862 -0.801095 
0.495625 0.095862 -0.803623 
0.499240 0.097197 -0.797990 
0.499240 0.097197 -0.784969 
0.507115 0.109683 -0.793691 
0.507115 0.109683 -0.791538 
0.506465 0.105885 -0.792332 
0.506465 0.105885 -0.784969 
0.499240 0.097197 -0.784969 
0.491786 0.095509 -0.784969 
0.495625 0.095862 -0.784969 
0.502385 0.099421 -0.784969 
0.487988 0.096162 -0.784969 
0.504850 0.102385 -0.784969 
0.484488 0.097775 -0.784969 
0.506465 0.105885 -0.784969 
0.481525 0.100239 -0.784969 
0.507115 0.109683 -0.784969 
0.479300 0.103386 -0.784969 
0.506765 0.113521 -0.784969 
0.477966 0.107002 -0.784969 
0.505430 0.117137 -0.784969 
0.477612 0.110840 -0.784969 
0.503205 0.120284 -0.784969 
0.478265 0.114638 -0.784969 
0.500240 0.122748 -0.784969 
0.479879 0.118139 -0.784969 
0.496742 0.124362 -0.784969 
0.482342 0.121103 -0.784969 
0.492943 0.125014 -0.784969 
0.485490 0.123327 -0.784969 
0.489106 0.124661 -0.784969 
0.493818 0.095696 -0.805049 
0.492351 0.095561 -0.803679 
0.491786 0.095509 -0.807776 
0.491786 0.095509 -0.804437 
0.495625 0.095862 -0.784969 
0.495625 0.095862 -0.801095 
0.506765 0.113521 -0.793314 
0.506765 0.113521 -0.791161 
0.507115 0.109683 -0.791538 
0.507115 0.109683 -0.784969 
0.485490 0.123327 -0.802022 
0.482342 0.121103 -0.784969 
0.485490 0.123327 -0.784969 
0.483733 0.122085 -0.803679 
0.482342 0.121103 -0.805907 
0.479879 0.118139 -0.784969 
0.479879 0.118139 -0.810373 
0.478265 0.114638 -0.784969 
0.478265 0.114638 -0.813958 
0.477612 0.110840 -0.784969 
0.477969 0.112912 -0.815075 
0.477612 0.110840 -0.817609 
0.477966 0.107002 -0.784969 
0.477966 0.107002 -0.819810 
0.479300 0.103386 -0.819417 
0.479300 0.103386 -0.784969 
0.481525 0.100239 -0.816458 
0.481525 0.100239 -0.784969 
0.482294 0.099599 -0.815075 
0.484488 0.097775 -0.812988 
0.484488 0.097775 -0.784969 
0.487988 0.096162 -0.809111 
0.487988 0.096162 -0.784969 
0.491786 0.095509 -0.804437 
0.491786 0.095509 -0.784969 
0.492351 0.095561 -0.803679 
0.506765 0.113521 -0.791161 
0.506765 0.113521 -0.784969 
0.505430 0.117137 -0.784969 
0.505430 0.117137 -0.791228 
0.503205 0.120284 -0.784969 
0.503205 0.120284 -0.791735 
0.500240 0.122748 -0.784969 
0.500240 0.122748 -0.792645 
0.496742 0.124362 -0.793898 
0.496742 0.124362 -0.784969 
0.492943 0.125014 -0.784969 
0.494411 0.124762 -0.794825 
0.492943 0.125014 -0.795887 
0.489106 0.124661 -0.784969 
0.489106 0.124661 -0.798917 
0.487988 0.096162 -0.812449 
0.487988 0.096162 -0.809111 
0.505430 0.117137 -0.791228 
0.505430 0.117137 -0.793381 
0.484488 0.097775 -0.812988 
0.484761 0.097650 -0.816026 
0.484488 0.097775 -0.816597 
0.503205 0.120284 -0.791735 
0.503205 0.120284 -0.794024 
0.505430 0.117137 -0.793550 
0.506765 0.113521 -0.793487 
0.507115 0.109683 -0.793840 
0.506465 0.105885 -0.794583 
0.505710 0.104249 -0.795089 
0.505710 0.104249 -0.840962 
0.485025 0.097527 -0.840962 
0.485025 0.097527 -0.816284 
0.484488 0.097775 -0.817332 
0.481525 0.100239 -0.822298 
0.481525 0.100239 -0.821921 
0.507115 0.109683 -0.793691 
0.506765 0.113521 -0.793314 
0.505430 0.117137 -0.793381 
0.478433 0.105735 -0.780048 
0.481479 0.120063 -0.784969 
0.478433 0.105735 -0.784969 
0.481479 0.120063 -0.780048 
0.478433 0.105735 -0.784969 
0.503250 0.100460 -0.784969 
0.489320 0.095933 -0.784969 
0.506295 0.114788 -0.784969 
0.481479 0.120063 -0.784969 
0.495411 0.124591 -0.784969 
0.489320 0.095933 -0.780048 
0.478433 0.105735 -0.784969 
0.489320 0.095933 -0.784969 
0.478433 0.105735 -0.780048 
0.503250 0.100460 -0.780048 
0.478433 0.105735 -0.780048 
0.489320 0.095933 -0.780048 
0.506295 0.114788 -0.780048 
0.481479 0.120063 -0.780048 
0.495411 0.124591 -0.780048 
0.481479 0.120063 -0.784969 
0.495411 0.124591 -0.780048 
0.495411 0.124591 -0.784969 
0.481479 0.120063 -0.780048 
0.495411 0.124591 -0.780048 
0.506295 0.114788 -0.784969 
0.495411 0.124591 -0.784969 
0.506295 0.114788 -0.780048 
0.506295 0.114788 -0.780048 
0.503250 0.100460 -0.784969 
0.506295 0.114788 -0.784969 
0.503250 0.100460 -0.780048 
0.489320 0.095933 -0.780048 
0.503250 0.100460 -0.784969 
0.503250 0.100460 -0.780048 
0.489320 0.095933 -0.784969 
0.576530 0.116910 -0.853700 
0.576530 0.116910 -0.828225 
0.578125 0.117429 -0.840962 
0.571855 0.115391 -0.865569 
0.571855 0.115391 -0.816356 
0.564415 0.112974 -0.875761 
0.564415 0.112974 -0.806164 
0.554720 0.109825 -0.883582 
0.554720 0.109825 -0.798343 
0.543435 0.106157 -0.888498 
0.543435 0.106157 -0.793427 
0.531320 0.102221 -0.890175 
0.531320 0.102221 -0.791750 
0.519205 0.098285 -0.888498 
0.519205 0.098285 -0.793427 
0.507920 0.094617 -0.883582 
0.507920 0.094617 -0.798343 
0.498224 0.091467 -0.875761 
0.498224 0.091467 -0.806164 
0.490787 0.089051 -0.865569 
0.490787 0.089051 -0.816356 
0.486111 0.087531 -0.853700 
0.486111 0.087531 -0.828225 
0.484516 0.087014 -0.840962 
0.531320 0.102221 -0.791750 
0.523770 0.084243 -0.793427 
0.535880 0.088179 -0.791750 
0.519205 0.098285 -0.793427 
0.543435 0.106157 -0.793427 
0.547995 0.092115 -0.793427 
0.554720 0.109825 -0.798343 
0.559285 0.095784 -0.798343 
0.564415 0.112974 -0.806164 
0.568980 0.098933 -0.806164 
0.576415 0.101349 -0.816356 
0.571855 0.115391 -0.816356 
0.581090 0.102869 -0.828225 
0.576530 0.116910 -0.828225 
0.582685 0.103387 -0.840962 
0.578125 0.117429 -0.840962 
0.581090 0.102869 -0.853700 
0.576530 0.116910 -0.853700 
0.576415 0.101349 -0.865569 
0.571855 0.115391 -0.865569 
0.568980 0.098933 -0.875761 
0.564415 0.112974 -0.875761 
0.554720 0.109825 -0.883582 
0.559285 0.095784 -0.883582 
0.543435 0.106157 -0.888498 
0.547995 0.092115 -0.888498 
0.531320 0.102221 -0.890175 
0.535880 0.088179 -0.890175 
0.519205 0.098285 -0.888498 
0.523770 0.084243 -0.888498 
0.507920 0.094617 -0.883582 
0.512480 0.080576 -0.883582 
0.498224 0.091467 -0.875761 
0.502785 0.077427 -0.875761 
0.495349 0.075010 -0.865569 
0.490787 0.089051 -0.865569 
0.490673 0.073491 -0.853700 
0.486111 0.087531 -0.853700 
0.489079 0.072972 -0.840962 
0.484516 0.087014 -0.840962 
0.490673 0.073491 -0.828225 
0.486111 0.087531 -0.828225 
0.495349 0.075010 -0.816356 
0.490787 0.089051 -0.816356 
0.502785 0.077427 -0.806164 
0.498224 0.091467 -0.806164 
0.507920 0.094617 -0.798343 
0.512480 0.080576 -0.798343 
0.523770 0.084243 -0.793427 
0.536440 0.086469 -0.799832 
0.535880 0.088179 -0.791750 
0.526315 0.083179 -0.801233 
0.546560 0.089759 -0.801233 
0.547995 0.092115 -0.793427 
0.555995 0.092824 -0.805342 
0.559285 0.095784 -0.798343 
0.564100 0.095457 -0.811879 
0.568980 0.098933 -0.806164 
0.570315 0.097477 -0.820397 
0.576415 0.101349 -0.816356 
0.574220 0.098746 -0.830317 
0.581090 0.102869 -0.828225 
0.575555 0.099179 -0.840962 
0.582685 0.103387 -0.840962 
0.581090 0.102869 -0.853700 
0.574220 0.098746 -0.851608 
0.576415 0.101349 -0.865569 
0.570315 0.097477 -0.861528 
0.568980 0.098933 -0.875761 
0.564100 0.095457 -0.870046 
0.559285 0.095784 -0.883582 
0.555995 0.092824 -0.876582 
0.547995 0.092115 -0.888498 
0.546560 0.089759 -0.880691 
0.535880 0.088179 -0.890175 
0.536440 0.086469 -0.882093 
0.526315 0.083179 -0.880691 
0.523770 0.084243 -0.888498 
0.516880 0.080114 -0.876582 
0.512480 0.080576 -0.883582 
0.508780 0.077482 -0.870046 
0.502785 0.077427 -0.875761 
0.502560 0.075462 -0.861528 
0.495349 0.075010 -0.865569 
0.498654 0.074193 -0.851608 
0.490673 0.073491 -0.853700 
0.497321 0.073759 -0.840962 
0.489079 0.072972 -0.840962 
0.490673 0.073491 -0.828225 
0.498654 0.074193 -0.830317 
0.495349 0.075010 -0.816356 
0.502560 0.075462 -0.820397 
0.502785 0.077427 -0.806164 
0.508780 0.077482 -0.811879 
0.512480 0.080576 -0.798343 
0.516880 0.080114 -0.805342 
0.536895 0.085066 -0.807980 
0.528775 0.082428 -0.809103 
0.545015 0.087704 -0.809103 
0.552580 0.090162 -0.812399 
0.559075 0.092273 -0.817640 
0.564060 0.093893 -0.824471 
0.567195 0.094911 -0.832426 
0.568260 0.095258 -0.840962 
0.567195 0.094911 -0.849499 
0.564060 0.093893 -0.857454 
0.559075 0.092273 -0.864285 
0.552580 0.090162 -0.869526 
0.545015 0.087704 -0.872821 
0.536895 0.085066 -0.873945 
0.528775 0.082428 -0.872821 
0.521210 0.079970 -0.869526 
0.514715 0.077859 -0.864285 
0.509730 0.076240 -0.857454 
0.506595 0.075221 -0.849499 
0.505525 0.074874 -0.840962 
0.506595 0.075221 -0.832426 
0.509730 0.076240 -0.824471 
0.514715 0.077859 -0.817640 
0.521210 0.079970 -0.812399 
0.537250 0.083973 -0.816179 
0.531150 0.081990 -0.817024 
0.543350 0.085955 -0.817024 
0.549035 0.087802 -0.819500 
0.553915 0.089387 -0.823438 
0.557660 0.090605 -0.828571 
0.560015 0.091370 -0.834548 
0.560820 0.091631 -0.840962 
0.560015 0.091370 -0.847377 
0.557660 0.090605 -0.853354 
0.553915 0.089387 -0.858486 
0.549035 0.087802 -0.862425 
0.543350 0.085955 -0.864901 
0.537250 0.083973 -0.865745 
0.531150 0.081990 -0.864901 
0.525465 0.080143 -0.862425 
0.520585 0.078557 -0.858486 
0.516835 0.077340 -0.853354 
0.514485 0.076575 -0.847377 
0.513680 0.076314 -0.840962 
0.514485 0.076575 -0.834548 
0.516835 0.077340 -0.828571 
0.520585 0.078557 -0.823438 
0.525465 0.080143 -0.819500 
0.533430 0.081867 -0.824982 
0.537505 0.083190 -0.824419 
0.541575 0.084513 -0.824982 
0.545370 0.085746 -0.826635 
0.548630 0.086805 -0.829264 
0.551130 0.087617 -0.832691 
0.552700 0.088128 -0.836681 
0.553240 0.088302 -0.840962 
0.552700 0.088128 -0.845244 
0.551130 0.087617 -0.849234 
0.548630 0.086805 -0.852661 
0.545370 0.085746 -0.855290 
0.541575 0.084513 -0.856942 
0.537505 0.083190 -0.857506 
0.533430 0.081867 -0.856942 
0.529635 0.080633 -0.855290 
0.526380 0.079575 -0.852661 
0.523880 0.078763 -0.849234 
0.522305 0.078252 -0.845244 
0.521770 0.078078 -0.840962 
0.522305 0.078252 -0.836681 
0.523880 0.078763 -0.832691 
0.526380 0.079575 -0.829264 
0.529635 0.080633 -0.826635 
0.537655 0.082720 -0.832684 
0.535620 0.082058 -0.832966 
0.539695 0.083382 -0.832966 
0.541595 0.083999 -0.833793 
0.543225 0.084529 -0.835108 
0.544475 0.084936 -0.836823 
0.545260 0.085191 -0.838820 
0.545530 0.085278 -0.840962 
0.545260 0.085191 -0.843105 
0.544475 0.084936 -0.845102 
0.543225 0.084529 -0.846816 
0.541595 0.083999 -0.848132 
0.539695 0.083382 -0.848959 
0.537655 0.082720 -0.849241 
0.535620 0.082058 -0.848959 
0.533720 0.081441 -0.848132 
0.532090 0.080911 -0.846816 
0.530840 0.080504 -0.845102 
0.530050 0.080249 -0.843105 
0.529785 0.080162 -0.840962 
0.530050 0.080249 -0.838820 
0.530840 0.080504 -0.836823 
0.532090 0.080911 -0.835108 
0.533720 0.081441 -0.833793 
0.537705 0.082563 -0.840962 
0.472350 0.124457 -0.840962 
0.473945 0.124975 -0.853700 
0.473945 0.124975 -0.828225 
0.478620 0.126494 -0.816356 
0.478620 0.126494 -0.865569 
0.486059 0.128911 -0.806164 
0.486059 0.128911 -0.875761 
0.495752 0.132060 -0.798343 
0.495752 0.132060 -0.883582 
0.507040 0.135728 -0.793427 
0.507040 0.135728 -0.888498 
0.519155 0.139664 -0.791750 
0.519155 0.139664 -0.890175 
0.531270 0.143600 -0.793427 
0.531270 0.143600 -0.888498 
0.542555 0.147268 -0.798343 
0.542555 0.147268 -0.883582 
0.552250 0.150417 -0.806164 
0.552250 0.150417 -0.875761 
0.559685 0.152834 -0.816356 
0.559685 0.152834 -0.865569 
0.564365 0.154353 -0.828225 
0.564365 0.154353 -0.853700 
0.565960 0.154872 -0.840962 
0.507040 0.135728 -0.793427 
0.519155 0.139664 -0.791750 
0.502480 0.149769 -0.793427 
0.514590 0.153705 -0.791750 
0.531270 0.143600 -0.793427 
0.526705 0.157641 -0.793427 
0.542555 0.147268 -0.798343 
0.537995 0.161309 -0.798343 
0.552250 0.150417 -0.806164 
0.547685 0.164458 -0.806164 
0.555125 0.166876 -0.816356 
0.559685 0.152834 -0.816356 
0.559800 0.168394 -0.828225 
0.564365 0.154353 -0.828225 
0.561395 0.168913 -0.840962 
0.565960 0.154872 -0.840962 
0.559800 0.168394 -0.853700 
0.564365 0.154353 -0.853700 
0.555125 0.166876 -0.865569 
0.559685 0.152834 -0.865569 
0.547685 0.164458 -0.875761 
0.552250 0.150417 -0.875761 
0.542555 0.147268 -0.883582 
0.537995 0.161309 -0.883582 
0.531270 0.143600 -0.888498 
0.526705 0.157641 -0.888498 
0.519155 0.139664 -0.890175 
0.514590 0.153705 -0.890175 
0.507040 0.135728 -0.888498 
0.502480 0.149769 -0.888498 
0.495752 0.132060 -0.883582 
0.491190 0.146102 -0.883582 
0.486059 0.128911 -0.875761 
0.481496 0.142952 -0.875761 
0.478620 0.126494 -0.865569 
0.474058 0.140535 -0.865569 
0.473945 0.124975 -0.853700 
0.469382 0.139016 -0.853700 
0.472350 0.124457 -0.840962 
0.467788 0.138498 -0.840962 
0.473945 0.124975 -0.828225 
0.469382 0.139016 -0.828225 
0.478620 0.126494 -0.816356 
0.474058 0.140535 -0.816356 
0.486059 0.128911 -0.806164 
0.481496 0.142952 -0.806164 
0.495752 0.132060 -0.798343 
0.491190 0.146102 -0.798343 
0.503910 0.152126 -0.801233 
0.502480 0.149769 -0.793427 
0.514035 0.155416 -0.799832 
0.514590 0.153705 -0.791750 
0.524160 0.158705 -0.801233 
0.526705 0.157641 -0.793427 
0.533595 0.161771 -0.805342 
0.537995 0.161309 -0.798343 
0.541695 0.164403 -0.811879 
0.547685 0.164458 -0.806164 
0.547910 0.166423 -0.820397 
0.555125 0.166876 -0.816356 
0.551820 0.167692 -0.830317 
0.559800 0.168394 -0.828225 
0.553155 0.168125 -0.840962 
0.561395 0.168913 -0.840962 
0.551820 0.167692 -0.851608 
0.559800 0.168394 -0.853700 
0.547910 0.166423 -0.861528 
0.555125 0.166876 -0.865569 
0.541695 0.164403 -0.870046 
0.547685 0.164458 -0.875761 
0.533595 0.161771 -0.876582 
0.537995 0.161309 -0.883582 
0.524160 0.158705 -0.880691 
0.526705 0.157641 -0.888498 
0.514035 0.155416 -0.882093 
0.514590 0.153705 -0.890175 
0.502480 0.149769 -0.888498 
0.503910 0.152126 -0.880691 
0.491190 0.146102 -0.883582 
0.494478 0.149061 -0.876582 
0.481496 0.142952 -0.875761 
0.486376 0.146429 -0.870046 
0.474058 0.140535 -0.865569 
0.480160 0.144409 -0.861528 
0.469382 0.139016 -0.853700 
0.476252 0.143139 -0.851608 
0.467788 0.138498 -0.840962 
0.474919 0.142706 -0.840962 
0.469382 0.139016 -0.828225 
0.476252 0.143139 -0.830317 
0.474058 0.140535 -0.816356 
0.480160 0.144409 -0.820397 
0.481496 0.142952 -0.806164 
0.486376 0.146429 -0.811879 
0.491190 0.146102 -0.798343 
0.494478 0.149061 -0.805342 
0.505460 0.154181 -0.809103 
0.513580 0.156819 -0.807980 
0.521700 0.159457 -0.809103 
0.529265 0.161915 -0.812399 
0.535760 0.164026 -0.817640 
0.540745 0.165646 -0.824471 
0.543880 0.166664 -0.832426 
0.544950 0.167011 -0.840962 
0.543880 0.166664 -0.849499 
0.540745 0.165646 -0.857454 
0.535760 0.164026 -0.864285 
0.529265 0.161915 -0.869526 
0.521700 0.159457 -0.872821 
0.513580 0.156819 -0.873945 
0.505460 0.154181 -0.872821 
0.497896 0.151723 -0.869526 
0.491399 0.149612 -0.864285 
0.486414 0.147992 -0.857454 
0.483281 0.146974 -0.849499 
0.482212 0.146627 -0.840962 
0.483281 0.146974 -0.832426 
0.486414 0.147992 -0.824471 
0.491399 0.149612 -0.817640 
0.497896 0.151723 -0.812399 
0.507125 0.155931 -0.817024 
0.513225 0.157913 -0.816179 
0.519325 0.159895 -0.817024 
0.525010 0.161741 -0.819500 
0.529890 0.163328 -0.823438 
0.533635 0.164545 -0.828571 
0.535990 0.165310 -0.834548 
0.536795 0.165571 -0.840962 
0.535990 0.165310 -0.847377 
0.533635 0.164545 -0.853354 
0.529890 0.163328 -0.858486 
0.525010 0.161741 -0.862425 
0.519325 0.159895 -0.864901 
0.513225 0.157913 -0.865745 
0.507125 0.155931 -0.864901 
0.501440 0.154084 -0.862425 
0.496559 0.152498 -0.858486 
0.492812 0.151280 -0.853354 
0.490458 0.150515 -0.847377 
0.489655 0.150254 -0.840962 
0.490458 0.150515 -0.834548 
0.492812 0.151280 -0.828571 
0.496559 0.152498 -0.823438 
0.501440 0.154084 -0.819500 
0.508900 0.157372 -0.824982 
0.512970 0.158695 -0.824419 
0.517045 0.160018 -0.824982 
0.520840 0.161251 -0.826635 
0.524095 0.162310 -0.829264 
0.526595 0.163123 -0.832691 
0.528170 0.163633 -0.836681 
0.528705 0.163807 -0.840962 
0.528170 0.163633 -0.845244 
0.526595 0.163123 -0.849234 
0.524095 0.162310 -0.852661 
0.520840 0.161251 -0.855290 
0.517045 0.160018 -0.856942 
0.512970 0.158695 -0.857506 
0.508900 0.157372 -0.856942 
0.505105 0.156139 -0.855290 
0.501845 0.155080 -0.852661 
0.499344 0.154268 -0.849234 
0.497773 0.153757 -0.845244 
0.497236 0.153582 -0.840962 
0.497773 0.153757 -0.836681 
0.499344 0.154268 -0.832691 
0.501845 0.155080 -0.829264 
0.505105 0.156139 -0.826635 
0.510780 0.158503 -0.832966 
0.512820 0.159165 -0.832684 
0.514855 0.159827 -0.832966 
0.516755 0.160444 -0.833793 
0.518385 0.160974 -0.835108 
0.519635 0.161381 -0.836823 
0.520425 0.161636 -0.838820 
0.520690 0.161723 -0.840962 
0.520425 0.161636 -0.843105 
0.519635 0.161381 -0.845102 
0.518385 0.160974 -0.846816 
0.516755 0.160444 -0.848132 
0.514855 0.159827 -0.848959 
0.512820 0.159165 -0.849241 
0.510780 0.158503 -0.848959 
0.508880 0.157886 -0.848132 
0.507250 0.157356 -0.846816 
0.506000 0.156950 -0.845102 
0.505215 0.156694 -0.843105 
0.504945 0.156606 -0.840962 
0.505215 0.156694 -0.838820 
0.506000 0.156950 -0.836823 
0.507250 0.157356 -0.835108 
0.508880 0.157886 -0.833793 
0.512765 0.159322 -0.840962 
0.344830 0.270863 0.666395 
0.344845 0.262253 0.666980 
0.344270 0.266560 0.666720 
0.346486 0.274870 0.666030 
0.346515 0.258239 0.667165 
0.349125 0.278309 0.665650 
0.349166 0.254790 0.667250 
0.352568 0.280946 0.665280 
0.352617 0.252140 0.667245 
0.356580 0.282598 0.664945 
0.356634 0.250470 0.667135 
0.360887 0.283156 0.664670 
0.360943 0.249894 0.666940 
0.365195 0.282581 0.664470 
0.365250 0.250452 0.666665 
0.369213 0.280912 0.664365 
0.369262 0.252106 0.666330 
0.372665 0.278261 0.664355 
0.372705 0.254742 0.665960 
0.375316 0.274812 0.664445 
0.375344 0.258180 0.665580 
0.376985 0.270797 0.664630 
0.376999 0.262188 0.665215 
0.377560 0.266492 0.664890 
0.377560 0.266492 0.664890 
0.377270 0.262523 0.670120 
0.376999 0.262188 0.665215 
0.377830 0.266827 0.669795 
0.375614 0.258516 0.670480 
0.375344 0.258180 0.665580 
0.372974 0.255076 0.670865 
0.372705 0.254742 0.665960 
0.369262 0.252106 0.666330 
0.369531 0.252441 0.671230 
0.365250 0.250452 0.666665 
0.365520 0.250787 0.671565 
0.360943 0.249894 0.666940 
0.361213 0.250229 0.671840 
0.356634 0.250470 0.667135 
0.356904 0.250805 0.672040 
0.352617 0.252140 0.667245 
0.352887 0.252475 0.672145 
0.349166 0.254790 0.667250 
0.349435 0.255125 0.672155 
0.346515 0.258239 0.667165 
0.346784 0.258574 0.672065 
0.344845 0.262253 0.666980 
0.345114 0.262589 0.671885 
0.344270 0.266560 0.666720 
0.344540 0.266895 0.671620 
0.344830 0.270863 0.666395 
0.345100 0.271198 0.671295 
0.346486 0.274870 0.666030 
0.346756 0.275205 0.670930 
0.349125 0.278309 0.665650 
0.349395 0.278645 0.670550 
0.352838 0.281280 0.670180 
0.352568 0.280946 0.665280 
0.356850 0.282934 0.669845 
0.356580 0.282598 0.664945 
0.361157 0.283491 0.669570 
0.360887 0.283156 0.664670 
0.365465 0.282916 0.669375 
0.365195 0.282581 0.664470 
0.369482 0.281246 0.669265 
0.369213 0.280912 0.664365 
0.372934 0.278596 0.669260 
0.372665 0.278261 0.664355 
0.375585 0.275147 0.669350 
0.375316 0.274812 0.664445 
0.377255 0.271132 0.669530 
0.376985 0.270797 0.664630 
0.345114 0.262589 0.671885 
0.345100 0.271198 0.671295 
0.344540 0.266895 0.671620 
0.346756 0.275205 0.670930 
0.346784 0.258574 0.672065 
0.349395 0.278645 0.670550 
0.349435 0.255125 0.672155 
0.352838 0.281280 0.670180 
0.352887 0.252475 0.672145 
0.356850 0.282934 0.669845 
0.356904 0.250805 0.672040 
0.361157 0.283491 0.669570 
0.361213 0.250229 0.671840 
